# .PCD v0.7 - Point Cloud Data file format
VERSION 0.7
FIELDS x y z rgb
SIZE 4 4 4 4
TYPE F F F F
COUNT 1 1 1 1
WIDTH 836
HEIGHT 1
VIEWPOINT 0 0 0 1 0 0 0
POINTS 836
DATA ascii
0.10133159 -0.42189157 0.28303862 1.2241135e-38
0.10816953 -0.42402944 0.28399378 1.3520027e-38
0.11799861 -0.42471391 0.2834352 1.2876801e-38
0.12469981 -0.42434865 0.28144917 1.2990582e-38
0.10209154 -0.42571741 0.27936986 1.1788051e-38
0.10787475 -0.43050158 0.27873161 1.2527428e-38
0.11621656 -0.4320111 0.27881008 1.3085653e-38
0.12303819 -0.42953539 0.27465019 1.3086007e-38
0.10964993 -0.43306294 0.27124262 1.3085289e-38
0.11341205 -0.43429253 0.27125517 1.4007251e-38
0.090985037 -0.40690631 0.28409454 1.353009e-38
0.10007524 -0.40911922 0.28515077 1.5105379e-38
0.10959543 -0.41120195 0.2852684 1.3181856e-38
0.11974764 -0.41174719 0.28452575 1.5008496e-38
0.12935558 -0.41315797 0.28403652 1.2684506e-38
0.13869834 -0.41228396 0.28189912 1.2795406e-38
0.09224622 -0.41249737 0.27871099 1.261889e-38
0.09743382 -0.4169178 0.28105822 1.3258881e-38
0.10882962 -0.41720161 0.28423321 1.5564568e-38
0.11872075 -0.4184542 0.28410268 1.3141167e-38
0.12967436 -0.42077711 0.2797972 1.261892e-38
0.13636829 -0.41819465 0.27742997 1.2256611e-38
0.093305603 -0.41566885 0.27260837 1.1882418e-38
0.099017426 -0.42126405 0.27245358 1.2250109e-38
0.10382523 -0.42664298 0.27101409 1.234159e-38
0.12094502 -0.42860085 0.27057311 1.2717945e-38
0.12700409 -0.42565167 0.27259624 1.2901616e-38
0.1015497 -0.42384827 0.26455948 1.1970636e-38
0.10688513 -0.43003002 0.26454037 1.2343032e-38
0.11697559 -0.43186051 0.26308399 1.3730659e-38
0.12258391 -0.43021968 0.26356977 1.3729576e-38
0.10926563 -0.43320727 0.25757933 1.4283112e-38
0.11361283 -0.43397436 0.25745782 1.3915414e-38
0.075939618 -0.39110163 0.28304178 1.2706784e-38
0.081661105 -0.39245486 0.28466639 1.4167901e-38
0.09149652 -0.39381111 0.28540808 1.5746773e-38
0.10141164 -0.39505163 0.28516078 1.2354628e-38
0.11090432 -0.39694673 0.28511384 1.5943783e-38
0.12131695 -0.39833912 0.28499755 1.5840404e-38
0.13127515 -0.39861876 0.28457314 1.3509219e-38
0.14101532 -0.39954439 0.28395244 1.3414515e-38
0.15118451 -0.40030089 0.28264746 1.2688463e-38
0.15936284 -0.39995191 0.28156111 1.3542342e-38
0.07588914 -0.39255959 0.2812072 1.3357524e-38
0.081914313 -0.3983911 0.28086698 1.2432348e-38
0.089262411 -0.40171754 0.2840434 1.4178006e-38
0.098894849 -0.40179881 0.28495085 1.4747383e-38
0.11078795 -0.40300351 0.28421608 1.3186921e-38
0.12035459 -0.40411949 0.28442085 1.67739e-38
0.13080445 -0.40553334 0.28366107 1.388448e-38
0.14117786 -0.40774894 0.2822428 1.2598066e-38
0.14944136 -0.40762034 0.27890414 1.2808351e-38
0.15762773 -0.40469483 0.27740857 1.3177853e-38
0.083649948 -0.4020232 0.27367187 1.2528148e-38
0.08812952 -0.40760422 0.27295965 1.1882784e-38
0.14082833 -0.41488776 0.27165121 1.2440645e-38
0.14645784 -0.41171917 0.2691552 1.2623953e-38
0.091231413 -0.41229355 0.26605919 1.2618188e-38
0.095802322 -0.41722789 0.26515028 1.2525979e-38
0.12997542 -0.42220509 0.26257044 1.3545908e-38
0.13655038 -0.41901726 0.26351422 1.2993455e-38
0.098581001 -0.4207778 0.2583822 1.242444e-38
0.10377757 -0.42657441 0.25764775 1.2340859e-38
0.12789653 -0.42407569 0.25490463 1.3177123e-38
0.13231677 -0.42353699 0.25470915 1.3176767e-38
0.10119811 -0.42296666 0.25090399 1.2595175e-38
0.10648955 -0.42996156 0.25024551 1.3356815e-38
0.11500717 -0.43221819 0.25009862 1.3915408e-38
0.12478983 -0.42688197 0.24907076 1.2624302e-38
0.10893419 -0.43237194 0.24318841 1.3821054e-38
0.11331239 -0.43409961 0.24198529 1.2806547e-38
0.066096313 -0.3757273 0.28466833 1.3713388e-38
0.073583059 -0.37706506 0.28591546 1.5086626e-38
0.083412118 -0.3781701 0.28628623 1.508591e-38
0.093298584 -0.37961137 0.28595006 1.4622049e-38
0.10315679 -0.38084418 0.28570235 1.4719654e-38
0.11286865 -0.38253355 0.28540531 1.4904751e-38
0.12324026 -0.38360232 0.28463271 1.369362e-38
0.13264252 -0.38474402 0.28433177 1.3888827e-38
0.14259757 -0.38578126 0.28405681 1.3885928e-38
0.15138121 -0.38948441 0.28428048 1.342065e-38
0.15721856 -0.39374396 0.28431061 1.3530826e-38
0.065975524 -0.37979877 0.28079683 1.160801e-38
0.071935415 -0.38513926 0.28254434 1.2706799e-38
0.082210742 -0.38612297 0.28543994 1.4807884e-38
0.091871947 -0.38712144 0.28568178 1.4529499e-38
0.10169946 -0.38841587 0.28543702 1.5666466e-38
0.11260746 -0.38980132 0.28480163 1.6398638e-38
0.12154203 -0.39072019 0.28435236 1.4158902e-38
0.13117868 -0.39141169 0.28442776 1.3599981e-38
0.14257011 -0.39286906 0.28409079 1.341956e-38
0.15175886 -0.39428195 0.28322569 1.3231209e-38
0.15807216 -0.39451396 0.28355843 1.3064122e-38
0.073318101 -0.39032158 0.27470013 1.151618e-38
0.078236215 -0.39559227 0.27462882 1.1884597e-38
0.15312397 -0.4053463 0.27082926 1.2439923e-38
0.15774646 -0.40381214 0.2696639 1.3362243e-38
0.074809082 -0.39351326 0.26701757 1.169804e-38
0.079943061 -0.39881301 0.2669552 1.1605488e-38
0.085812241 -0.40488657 0.26540342 1.1238864e-38
0.1427674 -0.41259462 0.26337093 1.2899816e-38
0.15046217 -0.40932232 0.26536041 1.2900534e-38
0.15785754 -0.40541422 0.26461262 1.3638111e-38
0.082653418 -0.40252873 0.25989661 1.2610634e-38
0.087519825 -0.40815839 0.25904056 1.2793954e-38
0.093286715 -0.41376549 0.25859934 1.260956e-38
0.14035375 -0.41525999 0.25661099 1.2624668e-38
0.14515194 -0.41303515 0.25720131 1.2625028e-38
0.089843035 -0.41170099 0.25090501 1.3244883e-38
0.094909325 -0.41756493 0.25188372 1.3055803e-38
0.13076991 -0.42265022 0.25189456 1.2808705e-38
0.13599202 -0.41882426 0.25033185 1.2900899e-38
0.14323559 -0.41349143 0.24935204 1.3359712e-38
0.097817078 -0.42121446 0.24421656 1.3428185e-38
0.10275213 -0.42606208 0.24445611 1.3350706e-38
0.11904257 -0.42855188 0.24365932 1.3453697e-38
0.12551099 -0.42547596 0.24139968 1.2621071e-38
0.13169447 -0.42460766 0.23795319 1.2715419e-38
0.099605761 -0.42387706 0.23617741 1.3436814e-38
0.10520621 -0.43022421 0.23717648 1.307592e-38
0.11508635 -0.43201435 0.23651674 1.2990209e-38
0.12282054 -0.42798215 0.2349934 1.2622864e-38
0.10778592 -0.43194398 0.22820634 1.3267151e-38
0.11200242 -0.43411419 0.22851911 1.3914326e-38
0.1282648 -0.36156261 0.28710455 1.3718894e-38
0.055585265 -0.36019015 0.28605202 1.4630328e-38
0.065136656 -0.36215913 0.28627461 1.5825643e-38
0.075015798 -0.36321363 0.28678542 1.582924e-38
0.085158005 -0.36409134 0.28658861 1.5548683e-38
0.094871908 -0.36503536 0.28648537 1.4806083e-38
0.1048812 -0.36663669 0.28575855 1.425111e-38
0.11464372 -0.3676396 0.28487432 1.4155679e-38
0.12503541 -0.36852527 0.28512296 1.3878013e-38
0.13417555 -0.37041181 0.28469265 1.3790488e-38
0.14078604 -0.37475291 0.28480852 1.4072474e-38
0.055867925 -0.36599272 0.2820448 1.2064658e-38
0.063015088 -0.37092051 0.28502852 1.3713397e-38
0.073146455 -0.37070131 0.28684834 1.554905e-38
0.083825789 -0.37112391 0.28657353 1.5547244e-38
0.093782023 -0.37220255 0.28584796 1.4806803e-38
0.1033386 -0.3737604 0.28603289 1.4344018e-38
0.11394572 -0.37430334 0.28459224 1.4063836e-38
0.12317519 -0.37616512 0.28452554 1.397057e-38
0.13460736 -0.37744987 0.28405991 1.4071035e-38
0.14189406 -0.37785384 0.28371438 1.3692192e-38
0.05747959 -0.36946571 0.27418667 1.1701662e-38
0.062268585 -0.37553793 0.27476996 1.1423992e-38
0.067345634 -0.382864 0.27481833 1.1978264e-38
0.064225733 -0.3797715 0.26636702 1.2065386e-38
0.06925147 -0.38596901 0.2682775 1.1974276e-38
0.071652405 -0.38975051 0.25999913 1.2698522e-38
0.076423965 -0.39548472 0.2601366 1.251448e-38
0.15433307 -0.40159491 0.2510592 1.2809781e-38
0.15808323 -0.40181595 0.25341263 1.3454434e-38
0.07403563 -0.3928768 0.25147137 1.352399e-38
0.078771003 -0.39876789 0.25239339 1.3523983e-38
0.083779916 -0.40439329 0.25277099 1.3432146e-38
0.150747 -0.40722987 0.24760953 1.2809058e-38
0.15696464 -0.4045167 0.24673799 1.3454075e-38
0.081435665 -0.40269899 0.2442756 1.37091e-38
0.085920796 -0.40770012 0.24491674 1.3429274e-38
0.14047334 -0.41473579 0.24176291 1.2806538e-38
0.14646688 -0.41235012 0.24226329 1.2528512e-38
0.154075 -0.40920708 0.24300194 1.2901609e-38
0.089587748 -0.4117614 0.23671958 1.2593026e-38
0.093597241 -0.41653565 0.23758012 1.2589799e-38
0.12939852 -0.42297021 0.23621789 1.2711824e-38
0.13666692 -0.41757253 0.23538795 1.2621432e-38
0.14370456 -0.41348076 0.23425302 1.2992369e-38
0.091427729 -0.41393703 0.22916281 1.1581729e-38
0.096620262 -0.42032918 0.22973499 1.2052058e-38
0.10195261 -0.4245559 0.2276316 1.1596466e-38
0.1182056 -0.42962328 0.22886378 1.3362573e-38
0.12620971 -0.42528236 0.22782624 1.2624301e-38
0.13210014 -0.4207716 0.22547495 1.2899809e-38
0.098829225 -0.42311057 0.22175124 1.5015972e-38
0.10425825 -0.42879006 0.2215775 1.4092933e-38
0.11496317 -0.4313783 0.22036779 1.3267865e-38
0.12268548 -0.4280045 0.21941975 1.2344473e-38
0.10691001 -0.43184149 0.21443489 1.3724157e-38
0.11197027 -0.43329611 0.21335956 1.2063571e-38
0.040932618 -0.3446261 0.28564578 1.3622284e-38
0.046369165 -0.34622154 0.28716245 1.6771036e-38
0.0565162 -0.34797403 0.28668672 1.9266049e-38
0.067035168 -0.34869072 0.28701016 1.7121796e-38
0.076109193 -0.34947816 0.28660232 1.6751556e-38
0.085967302 -0.35112187 0.28640798 1.5456129e-38
0.096620664 -0.35153958 0.28572106 1.4622412e-38
0.10615595 -0.35372677 0.28573793 1.4342227e-38
0.11638954 -0.35397497 0.28450435 1.3879449e-38
0.12410422 -0.35586974 0.28461623 1.3793021e-38
0.040641069 -0.34636903 0.28378433 1.1606189e-38
0.046235301 -0.35267425 0.28385967 1.3352882e-38
0.055324271 -0.35428414 0.28633648 1.6111258e-38
0.065865606 -0.35506546 0.28636402 1.6658286e-38
0.076310687 -0.35562217 0.28661734 1.6473888e-38
0.085465096 -0.35635895 0.28637645 1.5733077e-38
0.095292836 -0.35723579 0.28640583 1.4622052e-38
0.10467863 -0.35878167 0.28555599 1.443586e-38
0.11509457 -0.36001652 0.28465119 1.4064198e-38
0.12400249 -0.3608346 0.28438339 1.3875495e-38
0.047855459 -0.35756671 0.27629679 1.2067895e-38
0.051728494 -0.36204761 0.27618104 1.1792043e-38
0.054727033 -0.36727074 0.26928371 1.1699496e-38
0.059085071 -0.3725349 0.26802641 1.1606218e-38
0.056235902 -0.3714076 0.26154 1.2786756e-38
0.060605548 -0.3759371 0.26065931 1.2604884e-38
0.064006373 -0.38025805 0.25383127 1.3615461e-38
0.068042055 -0.38556871 0.25322747 1.333707e-38
0.071021393 -0.38998118 0.24614638 1.3521108e-38
0.075315021 -0.39568451 0.24473888 1.370802e-38
0.072802067 -0.39160204 0.23940581 1.3986409e-38
0.077521674 -0.39787349 0.23800316 1.3804179e-38
0.15117414 -0.40746668 0.23246962 1.3268239e-38
0.15527524 -0.40558505 0.23190823 1.3084568e-38
0.080601923 -0.40168485 0.23084402 1.223142e-38
0.085141644 -0.40737391 0.23162037 1.2598406e-38
0.13918543 -0.41602516 0.22769985 1.2624666e-38
0.14564185 -0.41244274 0.22779101 1.3084566e-38
0.15459913 -0.40760022 0.22774798 1.3269683e-38
0.088502735 -0.41121492 0.22349209 1.4828689e-38
0.093265541 -0.41619533 0.22258621 1.5013803e-38
0.12928107 -0.42320558 0.22062287 1.2346999e-38
0.13604252 -0.41868669 0.22107553 1.2530311e-38
0.14108671 -0.41624817 0.21716461 1.1232737e-38
0.090661287 -0.41355485 0.21640635 1.4924863e-38
0.095984183 -0.41960901 0.21456745 1.446425e-38
0.10079451 -0.42560309 0.21459961 1.4647917e-38
0.11878006 -0.42836276 0.21297035 1.2249025e-38
0.12691049 -0.42457008 0.21204406 1.1697686e-38
0.13258888 -0.42027685 0.21342313 1.1700213e-38
0.098089941 -0.42229307 0.20916516 1.3451543e-38
0.10391045 -0.42843324 0.20744234 1.400182e-38
0.11442764 -0.43207198 0.2068646 1.1504639e-38
0.12118793 -0.42901951 0.20754105 1.0031311e-38
0.10583973 -0.43255356 0.20084333 1.0775711e-38
0.11158998 -0.43423164 0.20015687 1.0123866e-38
0.031375967 -0.32986107 0.28665602 1.5192184e-38
0.038512617 -0.33076316 0.28700748 1.8531735e-38
0.048536237 -0.33197692 0.28711662 1.7334274e-38
0.058233134 -0.33278438 0.2866632 1.7242077e-38
0.068540655 -0.33479315 0.28749079 1.9822803e-38
0.0780361 -0.33585754 0.2872543 1.6105807e-38
0.087878987 -0.33594272 0.28634295 1.4900431e-38
0.098078758 -0.33730119 0.28558299 1.4158549e-38
0.10744358 -0.33848089 0.28545123 1.3698665e-38
0.11466758 -0.34083891 0.28490201 1.3444126e-38
0.031021608 -0.33289689 0.28390253 1.2801139e-38
0.037216943 -0.33771017 0.28465641 1.4275592e-38
0.047486529 -0.33853495 0.28662711 1.7702695e-38
0.057621792 -0.34089911 0.28680226 1.9086331e-38
0.067049168 -0.34100023 0.28703988 2.0186919e-38
0.077262439 -0.34217244 0.28655505 1.6658993e-38
0.087385938 -0.34306204 0.2856479 1.5179539e-38
0.096848309 -0.34448791 0.28563651 1.4529848e-38
0.10719256 -0.34498563 0.28460902 1.397272e-38
0.11638622 -0.34629664 0.28432888 1.3515723e-38
0.12253409 -0.34924793 0.28441042 1.3704768e-38
0.0376155 -0.34343618 0.27704969 1.2250839e-38
0.041891195 -0.3493337 0.27746639 1.2806886e-38
0.038956143 -0.34638041 0.26963654 1.1600823e-38
0.043641798 -0.35333359 0.2703847 1.1329986e-38
0.046245135 -0.35725251 0.26243612 1.2327234e-38
0.05112686 -0.36256239 0.26271892 1.2238991e-38
0.053600833 -0.36623815 0.25337547 1.3338514e-38
0.058270879 -0.37331256 0.2542603 1.333887e-38
0.05523999 -0.37030438 0.24709225 1.3707661e-38
0.060374454 -0.37636805 0.24721289 1.3615108e-38
0.062993892 -0.37987232 0.23938543 1.3987852e-38
0.067034855 -0.38447636 0.23951888 1.389349e-38
0.070118576 -0.39026436 0.23289368 1.2972592e-38
0.074738033 -0.3949585 0.23155817 1.1860142e-38
0.15791391 -0.40396842 0.22987863 1.3177127e-38
0.072179005 -0.39271185 0.22471982 1.4831947e-38
0.077529863 -0.39910603 0.22521016 1.5012717e-38
0.082886748 -0.40420336 0.22354221 1.5569854e-38
0.14497775 -0.41154078 0.22047222 1.3176744e-38
0.1546865 -0.40749609 0.22592264 1.3085287e-38
0.080180153 -0.40189654 0.21783966 1.5385841e-38
0.084946349 -0.40682203 0.21620607 1.5017421e-38
0.14398959 -0.41329566 0.21644515 1.0861083e-38
0.087448239 -0.41043878 0.2095224 1.3819601e-38
0.091940179 -0.41536033 0.20929062 1.3635211e-38
0.13351718 -0.42072824 0.20827925 1.2349184e-38
0.089835316 -0.4134362 0.20191115 1.4189819e-38
0.095442317 -0.41975391 0.20156133 1.3821396e-38
0.10033607 -0.42539442 0.20249107 1.3727759e-38
0.12351838 -0.42679018 0.19909757 7.3652191e-39
0.13367279 -0.41945744 0.20014054 1.151762e-38
0.097716473 -0.42287964 0.1946857 1.4190895e-38
0.10258635 -0.4280628 0.19262233 1.2624317e-38
0.11441417 -0.43184987 0.19300854 9.3016819e-39
0.12055948 -0.42976159 0.19379497 6.907108e-39
0.10485072 -0.43174064 0.18624219 9.8613913e-39
0.11173377 -0.43323517 0.18550828 1.0222902e-38
0.11983441 -0.43226242 0.18463281 8.6577474e-39
0.034105897 -0.31907025 0.28884801 1.7871568e-38
0.040620938 -0.3171117 0.2868053 2.1297556e-38
0.050176971 -0.31806794 0.2871902 1.6503075e-38
0.059494078 -0.31938821 0.28711244 1.6501263e-38
0.06886436 -0.32104421 0.28640366 1.5641237e-38
0.080126144 -0.32160032 0.28603154 1.4348695e-38
0.089749001 -0.32393661 0.28617409 1.3331672e-38
0.097574666 -0.32319498 0.28606024 1.4629246e-38
0.023427522 -0.32375345 0.28459561 1.428274e-38
0.029305397 -0.32396972 0.28624314 1.6583364e-38
0.03912412 -0.32315233 0.28693441 1.9269643e-38
0.048846103 -0.32447273 0.28694633 1.7887082e-38
0.05909124 -0.32589215 0.28684881 1.6504873e-38
0.068614751 -0.32708573 0.28670919 1.6857422e-38
0.079106569 -0.32761616 0.28587577 1.4810755e-38
0.089129172 -0.32899162 0.2859875 1.4161431e-38
0.098369703 -0.32989976 0.28495803 1.3972367e-38
0.10708064 -0.33320007 0.28517225 1.3894187e-38
0.028186701 -0.33089912 0.27872172 1.2435933e-38
0.029555572 -0.33441722 0.26987565 1.2883631e-38
0.033512011 -0.33914942 0.27138686 1.2426243e-38
0.036773343 -0.34487543 0.26383775 1.1597578e-38
0.040476259 -0.3483867 0.26344004 1.0951142e-38
0.038929854 -0.34734043 0.25545481 1.2711142e-38
0.042743675 -0.35324469 0.25581405 1.2230725e-38
0.045841035 -0.35830027 0.24864823 1.2872511e-38
0.049832687 -0.36196485 0.24880832 1.3336361e-38
0.046785019 -0.36108822 0.24188605 1.3144786e-38
0.052464992 -0.36691219 0.24052605 1.3427116e-38
0.057451047 -0.37249166 0.23992476 1.3518611e-38
0.05447004 -0.37068537 0.23470265 1.2780304e-38
0.059021778 -0.37570113 0.23370561 1.2970801e-38
0.062879466 -0.38065434 0.22642788 1.3811311e-38
0.066483334 -0.38405642 0.22429207 1.4366642e-38
0.063944384 -0.38268405 0.21797583 1.4647926e-38
0.069638364 -0.38868958 0.21751559 1.4741197e-38
0.07453607 -0.39403456 0.21766686 1.5662787e-38
0.07094384 -0.39174607 0.21145421 1.4834113e-38
0.076708652 -0.39780423 0.21024922 1.4557522e-38
0.081912436 -0.40391219 0.20994684 1.3912527e-38
0.078859359 -0.40109456 0.20294258 1.3914307e-38
0.084321067 -0.4066191 0.20182645 1.3913591e-38
0.086818688 -0.41060629 0.19575727 1.4836982e-38
0.091757074 -0.41595101 0.19513619 1.4837336e-38
0.12851116 -0.42302179 0.19309536 1.1331408e-38
0.13509297 -0.41829824 0.1915521 1.1241037e-38
0.14005536 -0.41593441 0.19048366 1.1791323e-38
0.088932604 -0.41354612 0.18716922 1.5116451e-38
0.094365999 -0.41923249 0.18769765 1.3454776e-38
0.098942488 -0.42452189 0.18773448 1.3269304e-38
0.1255043 -0.42522493 0.18614393 8.5695188e-39
0.13106889 -0.42231572 0.18500513 1.2068272e-38
0.096855298 -0.42296135 0.18086639 1.0868286e-38
0.1020835 -0.42814493 0.17902148 9.5851309e-39
0.1135928 -0.43323091 0.17973605 9.8526878e-39
0.1232257 -0.42902863 0.18115637 8.5612274e-39
0.10493048 -0.43149868 0.17203569 8.9412385e-39
0.10968412 -0.43400171 0.17218268 1.2435945e-38
0.060840361 -0.30515617 0.28615814 1.5175585e-38
0.072467379 -0.30576244 0.28664309 1.3886642e-38
0.080869801 -0.30603346 0.28668386 1.4254011e-38
0.087993138 -0.30899021 0.28586918 1.5190031e-38
0.043401606 -0.31399223 0.28728205 2.0834784e-38
0.050981976 -0.31248236 0.28734359 1.7425375e-38
0.060771652 -0.31123534 0.28648639 1.5552276e-38
0.070767976 -0.31290308 0.28582451 1.4808954e-38
0.080460556 -0.31375173 0.28577006 1.3426742e-38
0.089977339 -0.3154794 0.28512007 1.3795919e-38
0.09602496 -0.31724444 0.28664503 1.5207992e-38
0.022695733 -0.3246929 0.27238742 1.4190884e-38
0.024716489 -0.32586372 0.27272117 1.3635904e-38
0.022213416 -0.32504246 0.26712999 1.4098694e-38
0.025571041 -0.33001903 0.26526928 1.3356094e-38
0.029134238 -0.3332774 0.25691175 1.1226309e-38
0.03285842 -0.33823055 0.25687549 1.2068296e-38
0.035921726 -0.34310645 0.24836305 1.2883664e-38
0.040683568 -0.34762129 0.24654669 1.2317531e-38
0.03743124 -0.3474682 0.24182075 1.3451592e-38
0.041670546 -0.35152385 0.24152514 1.2418713e-38
0.044851907 -0.35685161 0.23429862 1.2962529e-38
0.049043324 -0.36219218 0.23376718 1.296325e-38
0.051826008 -0.36632928 0.22613975 1.4180444e-38
0.056771174 -0.3722114 0.22590199 1.4644659e-38
0.053323932 -0.36910295 0.21900019 1.4833034e-38
0.058821172 -0.37527606 0.21970704 1.4833033e-38
0.061403967 -0.37943983 0.21144816 1.4927029e-38
0.06613382 -0.38410485 0.21133679 1.4557161e-38
0.062641025 -0.38173437 0.20432425 1.4929899e-38
0.068355769 -0.38805678 0.20390627 1.474371e-38
0.07338997 -0.39398345 0.20396745 1.4557519e-38
0.071200445 -0.39265007 0.19715255 1.4931698e-38
0.075869769 -0.39760742 0.19559482 1.4560758e-38
0.080920167 -0.40350956 0.19573975 1.4283811e-38
0.078584932 -0.40085918 0.18799686 1.4931342e-38
0.083226793 -0.40599707 0.18786383 1.4930985e-38
0.14289513 -0.41301125 0.18309507 1.1138748e-38
0.085466839 -0.40999675 0.1815545 1.4010485e-38
0.091332845 -0.41572359 0.18001091 1.2073305e-38
0.13632509 -0.41736135 0.17724985 1.1235631e-38
0.14086917 -0.41554374 0.17686087 1.1043317e-38
0.087760851 -0.41281927 0.17377704 1.3083502e-38
0.093575262 -0.41850311 0.17295712 9.9466926e-39
0.099028915 -0.42495838 0.17345586 5.888287e-39
0.12608568 -0.42181236 0.16653258 1.0871519e-38
0.13252103 -0.41932559 0.17029795 1.0304315e-38
0.096093453 -0.42127135 0.16579318 7.8233078e-39
0.10129263 -0.42766681 0.1656549 8.4733842e-39
0.11344274 -0.43254852 0.16575256 1.1421804e-38
0.1195119 -0.4292379 0.16647273 1.0498056e-38
0.10374083 -0.43162289 0.15703297 7.8284099e-39
0.10998197 -0.43459392 0.15740344 1.2715068e-38
0.10733736 -0.43560517 0.15062726 1.345839e-38
0.063223727 -0.30060661 0.2860606 1.4989407e-38
0.071460776 -0.2987079 0.28655785 1.4437675e-38
0.079391681 -0.30224779 0.2871328 1.4813321e-38
0.023772912 -0.32601407 0.25650766 1.3636991e-38
0.025815602 -0.330513 0.25111938 1.2891535e-38
0.028618935 -0.33401048 0.24209937 1.1228439e-38
0.032135166 -0.33884871 0.24329576 1.251415e-38
0.029165521 -0.33682752 0.23625115 1.3446162e-38
0.034529828 -0.34243736 0.23465705 1.289195e-38
0.039387904 -0.34985033 0.23487782 1.4365609e-38
0.037224837 -0.34668916 0.22776479 1.3259232e-38
0.041158386 -0.35218069 0.22785544 1.380844e-38
0.044294287 -0.35744083 0.22160625 1.4833026e-38
0.04830084 -0.36196885 0.22061372 1.4925942e-38
0.045488365 -0.35946172 0.21264079 1.4650088e-38
0.050620556 -0.36585248 0.21222875 1.492631e-38
0.055747353 -0.37228376 0.21187043 1.4556812e-38
0.053175375 -0.36971202 0.20542306 1.5483071e-38
0.057398766 -0.37508607 0.20467284 1.5389804e-38
0.060314678 -0.37869978 0.1978274 1.5115376e-38
0.065237105 -0.38470963 0.19693848 1.5023179e-38
0.068387508 -0.38821059 0.1896441 1.5300488e-38
0.072573878 -0.39427611 0.18960497 1.5115374e-38
0.070198506 -0.39033487 0.1820938 1.5393053e-38
0.074860558 -0.39679524 0.1819545 1.5393409e-38
0.15483642 -0.40369028 0.17603692 1.26189e-38
0.077913113 -0.40043813 0.17474216 1.3734992e-38
0.082811691 -0.40585089 0.17275622 1.207296e-38
0.14874135 -0.40645647 0.16980624 1.0491212e-38
0.085663438 -0.41058794 0.16724685 1.2898033e-38
0.090446286 -0.41532081 0.16610932 1.114306e-38
0.12709035 -0.42077538 0.16600049 1.040513e-38
0.1335683 -0.41890007 0.1647186 1.0862857e-38
0.14080539 -0.41482669 0.16303924 1.2711077e-38
0.087272793 -0.4122045 0.15934449 1.1238481e-38
0.092802271 -0.41827112 0.15915763 9.3899062e-39
0.098513454 -0.42417082 0.15861374 1.0037076e-38
0.1242535 -0.42455393 0.15868294 1.1047633e-38
0.12995014 -0.42213458 0.15693307 1.1972812e-38
0.095612019 -0.42201599 0.15222645 9.6657757e-39
0.09992519 -0.42683738 0.15090489 9.5764723e-39
0.10545659 -0.43405449 0.15067416 9.3053743e-39
0.12056638 -0.4273577 0.15047982 1.2807264e-38
0.12754859 -0.42428261 0.15092313 1.3174257e-38
0.10327451 -0.43085951 0.14502326 8.2803539e-39
0.11008691 -0.43366274 0.14374977 1.2717959e-38
0.11669228 -0.42969233 0.14297831 1.2807267e-38
0.020410305 -0.32408676 0.24296486 1.6589775e-38
0.022961898 -0.3255114 0.2428076 1.4649709e-38
0.019629145 -0.32554066 0.23552364 1.6775252e-38
0.023842594 -0.3283349 0.23610276 1.4647549e-38
0.019225856 -0.32786363 0.22862589 1.742171e-38
0.026748147 -0.33197296 0.22809985 1.4740833e-38
0.031689569 -0.33825135 0.22792453 1.3537258e-38
0.028655913 -0.33611318 0.22095171 1.4649003e-38
0.033926602 -0.34254852 0.22089177 1.4741186e-38
0.038570061 -0.34944138 0.22069001 1.4463896e-38
0.036013469 -0.34592175 0.21403122 1.4834473e-38
0.040485807 -0.3515901 0.21323127 1.4834838e-38
0.04298009 -0.35575297 0.20510566 1.557564e-38
0.047417909 -0.3622202 0.20588553 1.5667108e-38
0.045317899 -0.35859591 0.19839922 1.5669996e-38
0.050301675 -0.36539114 0.19853631 1.5484881e-38
0.052168682 -0.36897689 0.19063002 1.5853669e-38
0.05727239 -0.37473765 0.19075704 1.5577438e-38
0.060320891 -0.37866479 0.1833111 1.5578162e-38
0.064365111 -0.38318652 0.18285885 1.5577796e-38
0.061979778 -0.38107932 0.17584601 1.6224256e-38
0.067212209 -0.38734004 0.17529786 1.5210834e-38
0.072004676 -0.39241391 0.17420277 1.4658371e-38
0.15594177 -0.4038578 0.17160898 1.2898727e-38
0.069042094 -0.39018929 0.16718504 1.3172463e-38
0.074261494 -0.39613488 0.16725525 1.2161548e-38
0.079996377 -0.4023512 0.16777423 1.1688355e-38
0.14811809 -0.40725672 0.16510838 1.1228424e-38
0.15357442 -0.4055005 0.16543826 1.289656e-38
0.077233009 -0.39993018 0.15968049 1.2439205e-38
0.081786789 -0.40483972 0.16044804 1.2711093e-38
0.13739203 -0.41656703 0.15686217 1.3358234e-38
0.14498356 -0.410662 0.15662932 1.2804002e-38
0.1521697 -0.40662691 0.15582392 1.3544091e-38
0.084393784 -0.40869731 0.15199926 1.3264248e-38
0.089297198 -0.41494668 0.15286192 1.0587715e-38
0.13571295 -0.41678455 0.15044504 1.2807605e-38
0.13986699 -0.41373789 0.14910555 1.3083473e-38
0.092483066 -0.41802856 0.1444048 1.0770309e-38
0.097268909 -0.42470095 0.14511454 1.1508968e-38
0.12312931 -0.42510769 0.14189532 1.2900536e-38
0.12990937 -0.42066163 0.14082396 1.2992017e-38
0.093938768 -0.42055866 0.13701954 1.4001846e-38
0.099941589 -0.42709824 0.13714173 1.4191314e-38
0.10948129 -0.43282211 0.13691786 1.1796748e-38
0.12007865 -0.42732653 0.13612539 1.3177134e-38
0.12804854 -0.4239991 0.13651484 1.3453369e-38
0.1012909 -0.42998448 0.12992036 1.2257054e-38
0.10859556 -0.43345588 0.12905002 1.2628669e-38
0.11559597 -0.43001539 0.12872571 1.4008348e-38
0.10648313 -0.43413448 0.12154037 1.2909227e-38
0.019717887 -0.32780245 0.22239143 1.8619163e-38
0.023612738 -0.32922205 0.22207806 1.566386e-38
0.02619135 -0.33190215 0.2140255 1.5295809e-38
0.030235015 -0.33659598 0.21295029 1.5019223e-38
0.033676066 -0.34216312 0.20657822 1.5483802e-38
0.037877504 -0.34757698 0.20610642 1.5668186e-38
0.035191618 -0.3451567 0.19988301 1.5853306e-38
0.039337263 -0.35076326 0.19883627 1.5668913e-38
0.042823352 -0.35560787 0.19185254 1.5854033e-38
0.047106288 -0.36028534 0.19101533 1.576219e-38
0.044042777 -0.35850233 0.18420956 1.6223537e-38
0.048924692 -0.36354515 0.18286493 1.6130983e-38
0.054690018 -0.36878341 0.18102959 1.5946943e-38
0.052752085 -0.36902529 0.17602444 1.5855838e-38
0.056338355 -0.37339303 0.17648166 1.5763288e-38
0.059683725 -0.37832275 0.16877449 1.5115418e-38
0.063527815 -0.38364863 0.16842666 1.3915807e-38
0.061692968 -0.38048986 0.1618866 1.2788948e-38
0.066415004 -0.38720629 0.16073164 1.3429253e-38
0.071261518 -0.39307407 0.1594736 1.214997e-38
0.068636857 -0.38975149 0.1545434 1.3615775e-38
0.073585823 -0.39582908 0.15345389 1.0585198e-38
0.14751077 -0.40649837 0.14831728 1.3082749e-38
0.15220144 -0.40625727 0.14842162 1.382105e-38
0.076471187 -0.40000233 0.14635789 1.3540098e-38
0.080829337 -0.40503192 0.14564151 1.548342e-38
0.13701686 -0.41525036 0.14220822 1.2900903e-38
0.1441633 -0.41152933 0.14288133 1.280871e-38
0.15075904 -0.40744066 0.1424925 1.3637751e-38
0.084573492 -0.40927696 0.13889661 1.5481644e-38
0.088537768 -0.41377485 0.13919353 1.2615649e-38
0.1348834 -0.41715136 0.13675612 1.308494e-38
0.14068836 -0.4151319 0.13725632 1.3269335e-38
0.086015098 -0.41209418 0.13121927 1.5672949e-38
0.091475129 -0.41805154 0.13063174 1.5488182e-38
0.095915511 -0.42281726 0.13079536 1.58577e-38
0.12331497 -0.42494166 0.12881047 1.3453733e-38
0.12921412 -0.42152923 0.12739265 1.3362259e-38
0.094002716 -0.42049217 0.12389189 1.4934663e-38
0.098750465 -0.4273923 0.12279767 1.4748477e-38
0.11330722 -0.43234301 0.12197822 1.4100548e-38
0.11972886 -0.42752272 0.12160575 1.3639568e-38
0.1270044 -0.42404279 0.12225741 1.3455177e-38
0.10166112 -0.43045574 0.11647636 1.0685786e-38
0.10877668 -0.43461782 0.11601114 1.2720866e-38
0.11599487 -0.43128574 0.11319095 1.3084948e-38
0.10865336 -0.43493268 0.10803849 1.3084587e-38
0.019375112 -0.32627624 0.20883486 1.9173409e-38
0.023049761 -0.32933691 0.20866954 1.5574915e-38
0.025657749 -0.33308235 0.20080918 1.4932794e-38
0.030241247 -0.33748317 0.20085949 1.5392688e-38
0.027433723 -0.33582899 0.19349775 1.5391607e-38
0.032118652 -0.34201905 0.19252032 1.5484525e-38
0.03736078 -0.34682038 0.19250128 1.5484882e-38
0.034357719 -0.34505489 0.18497747 1.5853676e-38
0.038882889 -0.35047543 0.18497252 1.5854399e-38
0.041290261 -0.35555258 0.17826313 1.5948039e-38
0.046314053 -0.36240369 0.17806756 1.6040599e-38
0.04871349 -0.36498356 0.17094994 1.5671818e-38
0.053985439 -0.37106028 0.16983783 1.5303396e-38
0.051420994 -0.36879149 0.16152653 1.3905009e-38
0.055612348 -0.37391266 0.1629478 1.390285e-38
0.058156081 -0.37751129 0.15483612 1.3242363e-38
0.062599942 -0.38227576 0.15493053 1.3149077e-38
0.059581086 -0.38029122 0.14738402 1.2041653e-38
0.065685444 -0.38608348 0.14678434 1.2505859e-38
0.070513211 -0.39187318 0.1473403 1.3258488e-38
0.067994952 -0.38977972 0.13971221 1.3517844e-38
0.072803803 -0.39552483 0.13958955 1.4363755e-38
0.15164901 -0.40677726 0.13670409 1.39147e-38
0.076531351 -0.3995868 0.13197321 1.6130637e-38
0.080785871 -0.40428486 0.13183951 1.5854798e-38
0.14059763 -0.41333285 0.12863314 1.3361894e-38
0.08306396 -0.40824103 0.12467635 1.5211252e-38
0.088251084 -0.4142237 0.12433696 1.5118334e-38
0.13378519 -0.41820806 0.12237293 1.308603e-38
0.13962692 -0.41501594 0.12185448 1.299383e-38
0.084944069 -0.41302297 0.11695939 1.5486753e-38
0.090231732 -0.41740668 0.11705422 1.5210523e-38
0.095502108 -0.42150092 0.11638123 1.5026129e-38
0.12367449 -0.42509672 0.1152032 1.2993477e-38
0.12992708 -0.42133716 0.11467195 1.2901273e-38
0.1374494 -0.41765437 0.11494595 1.2716516e-38
0.093216397 -0.42098367 0.10852689 1.5486739e-38
0.098059826 -0.42633539 0.10885209 1.5024686e-38
0.10387004 -0.43213585 0.10890287 2.683516e-39
0.12075551 -0.42830309 0.11190641 1.2715801e-38
0.12683797 -0.42308104 0.10845703 1.2991662e-38
0.10062565 -0.42984742 0.10094029 1.2713687e-38
0.10688689 -0.43394822 0.10141379 1.0968065e-38
0.1066342 -0.43479866 0.094210982 1.2258069e-38
0.022503277 -0.32827938 0.19393459 1.456008e-38
0.024343517 -0.33084095 0.18567431 1.4840607e-38
0.02857356 -0.33468276 0.18204847 1.5760758e-38
0.031037051 -0.34070462 0.17773616 1.5855479e-38
0.036260545 -0.3462939 0.17725244 1.6132429e-38
0.033628419 -0.34570783 0.16996562 1.5579618e-38
0.037673011 -0.35040674 0.17090666 1.5487785e-38
0.041406229 -0.35459208 0.1628966 1.4837034e-38
0.045040429 -0.35945219 0.16252774 1.4192757e-38
0.042058866 -0.35839415 0.15656731 1.4079308e-38
0.047519699 -0.36379519 0.15621743 1.3617261e-38
0.051127583 -0.36862805 0.14822441 1.2135661e-38
0.054802127 -0.37257135 0.14635044 1.1858705e-38
0.057716757 -0.37666732 0.14088482 1.1581383e-38
0.062399976 -0.38276184 0.14019173 1.1855464e-38
0.064948343 -0.38610131 0.13272938 1.5469419e-38
0.069848843 -0.39229333 0.13253051 1.6220292e-38
0.067677341 -0.38946077 0.12546492 1.5857343e-38
0.072557881 -0.39487237 0.12559736 1.6134279e-38
0.075072154 -0.39878517 0.11743242 1.567223e-38
0.079868287 -0.40387547 0.11676794 1.5488195e-38
0.14392339 -0.41062027 0.11293501 1.2993466e-38
0.14759649 -0.40946549 0.11218429 1.336189e-38
0.082452588 -0.40698421 0.10940731 1.5855888e-38
0.086802103 -0.41306719 0.10816312 1.5855525e-38
0.13359505 -0.41856605 0.10788333 1.2991297e-38
0.14018115 -0.4135308 0.10652298 1.2714351e-38
0.08454787 -0.41033053 0.10288334 1.6131749e-38
0.089413948 -0.41634837 0.10156089 1.5670768e-38
0.12285121 -0.42328337 0.098056674 1.2712553e-38
0.12957336 -0.42087209 0.10046858 1.289694e-38
0.1358934 -0.41702402 0.099482894 1.308097e-38
0.091476806 -0.42068356 0.09608537 1.5209415e-38
0.096540235 -0.42606682 0.094959199 1.5301972e-38
0.11299985 -0.43032473 0.09350884 1.1979643e-38
0.1184457 -0.42728797 0.093593776 1.2436321e-38
0.12464339 -0.42323291 0.093578517 1.2528519e-38
0.09970589 -0.43068159 0.088975251 1.2715109e-38
0.10705435 -0.43437931 0.08679688 1.1610163e-38
0.11539836 -0.43148208 0.086026549 1.1788069e-38
0.10652502 -0.43493032 0.080034852 1.0489443e-38
0.022699002 -0.32933134 0.17855921 1.4288176e-38
0.024361353 -0.3322387 0.17244405 1.5857648e-38
0.027960118 -0.33687481 0.17029756 1.5487785e-38
0.025885504 -0.33538648 0.16618788 1.668381e-38
0.030100789 -0.3390933 0.16392657 1.5855848e-38
0.033960491 -0.34585255 0.15619722 1.3897811e-38
0.037156612 -0.3499842 0.1569857 1.3717021e-38
0.040072918 -0.35427576 0.14800364 1.2506601e-38
0.045178339 -0.36010158 0.14874646 1.2873225e-38
0.041726649 -0.35876498 0.14311609 1.0480803e-38
0.046905391 -0.3631998 0.14209649 1.1307327e-38
0.049402475 -0.36761189 0.13791358 1.2590134e-38
0.054654196 -0.37276691 0.13401854 1.3705814e-38
0.057358474 -0.37656629 0.12632596 1.603738e-38
0.061613806 -0.38198358 0.12608415 1.6225037e-38
0.059418477 -0.38005239 0.11922991 1.576442e-38
0.064107731 -0.38585526 0.1197927 1.5672593e-38
0.069545969 -0.39134613 0.11836529 1.576515e-38
0.06690456 -0.38905883 0.11214644 1.6041368e-38
0.071325675 -0.39434618 0.11137646 1.6040644e-38
0.15132947 -0.40684438 0.10599679 1.4374234e-38
0.075105824 -0.39925081 0.10384881 1.5948438e-38
0.079287149 -0.40502936 0.10449255 1.5856243e-38
0.14257599 -0.41147563 0.10068864 1.2895865e-38
0.14970763 -0.40819266 0.098606884 1.3912886e-38
0.081819147 -0.40814498 0.095991433 1.5486726e-38
0.085961513 -0.41360524 0.096249759 1.5302339e-38
0.13298331 -0.41917372 0.094092548 1.2714341e-38
0.13966669 -0.41445923 0.093348622 1.3267868e-38
0.0837688 -0.41172248 0.090436637 1.4842426e-38
0.088481471 -0.41647482 0.08781755 1.5301599e-38
0.09371338 -0.42044035 0.085581005 1.5025727e-38
0.12307535 -0.42368174 0.087167978 1.2346268e-38
0.12878452 -0.42111444 0.086265326 1.2066809e-38
0.13627803 -0.41719359 0.085680068 1.2064287e-38
0.091508061 -0.41972321 0.080692172 1.5393063e-38
0.09605521 -0.42492807 0.079938233 1.5485615e-38
0.11189881 -0.43250322 0.07996577 1.1408468e-38
0.11858197 -0.42940772 0.080945611 1.1044049e-38
0.12522502 -0.42415792 0.079343796 1.1136238e-38
0.099372312 -0.42928815 0.073165715 1.4182276e-38
0.10552874 -0.43431908 0.073318541 1.002162e-38
0.1135225 -0.43350634 0.079022467 1.0762779e-38
0.10067625 -0.43260133 0.066440523 1.0569039e-38
0.10624281 -0.43468046 0.065831721 1.0300361e-38
0.11271492 -0.43435466 0.064963639 1.1503965e-38
0.017804839 -0.32302833 0.17283684 1.4110289e-38
0.016964782 -0.32554603 0.16672033 1.5029721e-38
0.019885402 -0.32720119 0.16674507 1.2443949e-38
0.022691593 -0.33083194 0.15770054 1.4094804e-38
0.027729107 -0.33663359 0.15752766 1.4460711e-38
0.024783127 -0.33548367 0.15108091 1.1680431e-38
0.029711105 -0.34011739 0.15073556 1.288006e-38
0.033014812 -0.34583911 0.14428243 1.075848e-38
0.036378242 -0.35020638 0.14360195 1.1676835e-38
0.040333804 -0.35343108 0.13442165 1.2135634e-38
0.043881662 -0.35720044 0.13249636 1.2775966e-38
0.042075209 -0.35609663 0.12799966 1.6012485e-38
0.047471263 -0.36282226 0.12768978 1.5469417e-38
0.051659033 -0.36759159 0.12770903 1.5567704e-38
0.04912357 -0.36700043 0.12056249 1.5856624e-38
0.053038806 -0.37177128 0.12012666 1.5856979e-38
0.057474084 -0.37764382 0.11375242 1.6132845e-38
0.062039115 -0.3822273 0.11129576 1.5856614e-38
0.058916338 -0.38148177 0.1082195 1.6133937e-38
0.063807674 -0.38506204 0.10437196 1.622503e-38
0.068779364 -0.390598 0.10402954 1.6132838e-38
0.066423103 -0.38830093 0.097914219 1.604027e-38
0.071348853 -0.39434391 0.097435892 1.5947711e-38
0.074009962 -0.39785606 0.08923918 1.5762583e-38
0.078214765 -0.4026137 0.088576376 1.5762583e-38
0.14327239 -0.41086757 0.085761607 1.3358979e-38
0.14899722 -0.40984273 0.088397145 1.2896946e-38
0.080716133 -0.40645999 0.081457198 1.5301949e-38
0.085318193 -0.4120028 0.081433594 1.5301591e-38
0.13302875 -0.41898185 0.079737127 1.1411746e-38
0.13676715 -0.41766897 0.080394328 1.1501063e-38
0.083059378 -0.41089848 0.075238526 1.4654778e-38
0.088201419 -0.41640449 0.074415565 1.4931719e-38
0.12898128 -0.42211246 0.07177341 1.1045123e-38
0.13462502 -0.42071468 0.075524807 1.1042965e-38
0.091319829 -0.41843018 0.067510784 1.5022829e-38
0.095858552 -0.42517495 0.066223025 1.3820694e-38
0.11980012 -0.426604 0.065234482 1.095006e-38
0.12504748 -0.4264006 0.066640198 1.1323527e-38
0.098436438 -0.42954105 0.059363544 1.130769e-38
0.10543445 -0.43427187 0.05940944 1.0117774e-38
0.11460852 -0.43141165 0.060926139 1.1412483e-38
0.021583138 -0.33076131 0.15183505 1.2962166e-38
0.023162529 -0.33101588 0.14367017 1.0672387e-38
0.026870439 -0.33708313 0.14371642 1.2049929e-38
0.029827239 -0.33916363 0.13569802 1.2045602e-38
0.034906417 -0.34640598 0.13480923 1.3055077e-38
0.032124519 -0.34596872 0.12987167 1.2791436e-38
0.036994673 -0.35029975 0.12943161 1.3158045e-38
0.039404392 -0.35387498 0.12190366 1.464757e-38
0.044067513 -0.35891753 0.1212427 1.6402913e-38
0.040916614 -0.3567422 0.11461538 1.4557575e-38
0.045967441 -0.36176521 0.11341387 1.6315064e-38
0.050917231 -0.36913115 0.11341035 1.6317955e-38
0.048906177 -0.36553746 0.1074512 1.6779284e-38
0.053344361 -0.37081546 0.10561633 1.631759e-38
0.055856355 -0.37487939 0.098152518 1.6040634e-38
0.059604697 -0.38039467 0.098010361 1.5948792e-38
0.057613701 -0.37866193 0.09217459 1.6317206e-38
0.063656367 -0.38573116 0.091670036 1.6132451e-38
0.068253152 -0.38915282 0.089379251 1.603918e-38
0.065083861 -0.38820773 0.083537579 1.5947327e-38
0.070164964 -0.39360678 0.083266556 1.585513e-38
0.073691539 -0.39906603 0.075680614 1.5485612e-38
0.077346362 -0.40384823 0.07618314 1.5117188e-38
0.14368224 -0.40877211 0.072038293 1.1683288e-38
0.14849404 -0.40800387 0.07216382 1.1413182e-38
0.08045309 -0.40696213 0.067787766 1.4190568e-38
0.085177638 -0.41283655 0.068454862 1.4560417e-38
0.13178225 -0.41898203 0.066057265 1.1137323e-38
0.1394224 -0.41440395 0.064418137 1.1319196e-38
0.14562538 -0.41142905 0.065678895 1.1224851e-38
0.0831201 -0.41023803 0.061136305 1.094828e-38
0.088640526 -0.41623288 0.060814261 1.1780544e-38
0.093184717 -0.42029184 0.060363114 1.2246554e-38
0.13223097 -0.42104399 0.064397097 1.1415364e-38
0.13564192 -0.41789156 0.061174572 1.160083e-38
0.021233903 -0.32921004 0.13799077 1.0032407e-38
0.022415327 -0.33175594 0.13061541 1.2422303e-38
0.026983345 -0.33560133 0.12985986 1.2966477e-38
0.02271707 -0.33429337 0.12324947 8.2860908e-39
0.027874229 -0.33771524 0.12175453 1.233981e-38
0.032328129 -0.34357032 0.11369723 1.2251223e-38
0.035832614 -0.34844264 0.11340272 1.2248694e-38
0.039138243 -0.35254061 0.10593051 1.3908211e-38
0.04367391 -0.35936409 0.10706842 1.6870386e-38
0.040690057 -0.35606119 0.10027146 1.6408691e-38
0.045981098 -0.3621425 0.099603772 1.6225028e-38
0.050482869 -0.36822033 0.099051714 1.6132816e-38
0.048333354 -0.36544225 0.092366874 1.6316847e-38
0.052676968 -0.3713772 0.091956973 1.6040263e-38
0.055637002 -0.37568888 0.083748043 1.6500505e-38
0.060072124 -0.38000688 0.084077537 1.6223921e-38
0.057101294 -0.3791908 0.077017963 1.5946607e-38
0.062001362 -0.38384968 0.076473892 1.5670016e-38
0.067102388 -0.39063162 0.076935709 1.5853338e-38
0.065481335 -0.38802013 0.070112705 1.61299e-38
0.069339305 -0.39372343 0.069611847 1.4009424e-38
0.071931966 -0.39680079 0.062514246 8.5659778e-39
0.076899625 -0.40199593 0.060578465 9.5750724e-39
0.019582553 -0.32936105 0.12404805 9.6715756e-39
0.021200212 -0.33146104 0.11352557 1.0225799e-38
0.026736883 -0.33678871 0.11558253 1.2622876e-38
0.028989146 -0.33939058 0.10937154 1.29895e-38
0.030816378 -0.34284985 0.10270089 1.6216648e-38
0.035445631 -0.34866837 0.10151547 1.6031208e-38
0.038276989 -0.35311052 0.094161868 1.6316127e-38
0.042207837 -0.35767406 0.093034267 1.640797e-38
0.045311697 -0.36176246 0.085570991 1.6500509e-38
0.050405838 -0.36732396 0.085795403 1.6316122e-38
0.047974449 -0.36579689 0.07756716 1.7146225e-38
0.051511507 -0.37094104 0.078722298 1.7053672e-38
0.054658622 -0.37683702 0.071509302 1.4475096e-38
0.059111655 -0.38165456 0.070336938 1.4750233e-38
0.062580779 -0.3842915 0.062816441 1.0230541e-38
0.066576645 -0.39029294 0.061602175 6.0763861e-39
0.018069291 -0.32693353 0.11110991 1.2719446e-38
0.020541402 -0.3309744 0.10167557 1.1513306e-38
0.02533468 -0.33410895 0.10154289 1.2895497e-38
0.021519953 -0.33215889 0.094189107 1.5299078e-38
0.028268971 -0.33912942 0.094181061 1.7146595e-38
0.03310091 -0.34405348 0.092994869 1.7054766e-38
0.029468818 -0.34340769 0.086460292 1.6962215e-38
0.034312733 -0.34747225 0.086264133 1.6409035e-38
0.037606306 -0.35225385 0.079217315 1.7054036e-38
0.041938484 -0.35750324 0.079179943 1.7054034e-38
0.03938859 -0.35465014 0.071089864 1.7423545e-38
0.044299789 -0.36131179 0.071478307 1.6687056e-38
0.049390905 -0.36823431 0.070564091 1.6411547e-38
0.046974212 -0.36474517 0.063883245 1.2079501e-38
0.050703414 -0.36846688 0.062646091 1.2078065e-38
0.059238121 -0.38011286 0.055810988 8.9347883e-39
0.0167324 -0.32810488 0.093863964 1.4840293e-38
0.019519886 -0.33007273 0.087373734 1.5857323e-38
0.025037795 -0.33477694 0.086683214 1.7516114e-38
0.022210864 -0.33272785 0.080272436 1.7515389e-38
0.026112137 -0.33838022 0.080732286 1.7330634e-38
0.029443821 -0.34309548 0.072388589 1.668743e-38
0.033145819 -0.34714204 0.072284877 1.6963647e-38
0.036281325 -0.35119012 0.065056801 1.4385095e-38
0.040979266 -0.35727823 0.064059675 1.3647183e-38
0.044119552 -0.36094007 0.056952298 1.1519859e-38
0.049679078 -0.36675245 0.056132138 9.9521884e-39
0.01750003 -0.32786459 0.081212878 1.4655923e-38
0.019455815 -0.33053315 0.07365644 1.4659514e-38
0.024496069 -0.33469695 0.072895586 1.7332075e-38
0.019996239 -0.33135924 0.066633999 1.1250472e-38
0.025519783 -0.33741701 0.065705597 1.3186203e-38
0.027849579 -0.34127411 0.060801625 1.170787e-38
0.034051254 -0.34851623 0.059275627 1.1892251e-38
0.020451965 -0.33093393 0.060017169 9.9561513e-39
0.022250725 -0.33296025 0.057095587 1.0415319e-38
