# .PCD v0.7 - Point Cloud Data file format
VERSION 0.7
FIELDS x y z rgb
SIZE 4 4 4 4
TYPE F F F F
COUNT 1 1 1 1
WIDTH 250
HEIGHT 1
VIEWPOINT 0 0 0 1 0 0 0
POINTS 250
DATA ascii
-0.1672086 -0.25190568 0.22444457 1.4292184e-38
-0.1606452 -0.25264186 0.22426814 1.4386913e-38
-0.14992404 -0.25353199 0.22489792 1.4850029e-38
-0.14025155 -0.25346258 0.22538212 1.4291819e-38
-0.13472402 -0.25065729 0.22632241 1.5128777e-38
-0.15806296 -0.25364831 0.22214592 1.3738648e-38
-0.15006176 -0.25482446 0.22148949 1.3461701e-38
-0.1417769 -0.25523865 0.22184798 1.3185103e-38
-0.17930585 -0.23861825 0.22610307 1.6871818e-38
-0.17729256 -0.24287799 0.22193211 1.5583633e-38
-0.17036787 -0.24780059 0.22297826 1.5492518e-38
-0.16401675 -0.24993575 0.22378594 1.6785051e-38
-0.13725272 -0.25097808 0.22231874 1.3368062e-38
-0.12979418 -0.24848029 0.22365582 1.3738275e-38
-0.12337568 -0.24354506 0.22204477 1.3370195e-38
-0.17686412 -0.24607235 0.21643487 1.5029023e-38
-0.16947544 -0.25092185 0.21558213 1.4292539e-38
-0.16018739 -0.25362146 0.2165584 1.3923398e-38
-0.1504979 -0.25485149 0.21503323 1.3462413e-38
-0.13878751 -0.25320885 0.21592098 1.3001069e-38
-0.13071248 -0.25026622 0.21569049 1.2908143e-38
-0.12493376 -0.24705407 0.21745759 1.2815935e-38
-0.16791728 -0.25236586 0.20773232 1.4107788e-38
-0.15940915 -0.25460184 0.20800197 1.3831201e-38
-0.15007542 -0.25516212 0.20593572 1.3278022e-38
-0.14084911 -0.25400358 0.20808494 1.3092903e-38
-0.13317232 -0.25148636 0.20796311 1.2999982e-38
-0.18615317 -0.2350305 0.22572032 1.5488203e-38
-0.18140565 -0.23487663 0.22603333 1.4661657e-38
-0.1172366 -0.23234671 0.22400826 1.5215552e-38
-0.11216711 -0.23186591 0.22358114 1.4379643e-38
-0.18687022 -0.23674351 0.21583241 1.5394533e-38
-0.18221486 -0.23899925 0.22043419 1.5490714e-38
-0.11836207 -0.23768154 0.21882096 1.3367304e-38
-0.11282048 -0.23503596 0.21781829 1.3919384e-38
-0.18698478 -0.23832282 0.21194935 1.5762237e-38
-0.18028283 -0.24357778 0.20926726 1.5029014e-38
-0.17478338 -0.24732 0.2116794 1.4753153e-38
-0.1264101 -0.24671996 0.20955265 1.2815938e-38
-0.12135518 -0.2418308 0.20939386 1.2814852e-38
-0.17839248 -0.24717337 0.20217305 1.4936821e-38
-0.17083533 -0.24959314 0.20088589 1.4292532e-38
-0.1612505 -0.25283358 0.20111853 1.3647525e-38
-0.14587623 -0.25473404 0.20094162 1.3001432e-38
-0.13929515 -0.25272575 0.20119298 1.3092542e-38
-0.1299096 -0.24907479 0.20160443 1.2908136e-38
-0.12413731 -0.244416 0.20162052 1.2815212e-38
-0.16821602 -0.25120366 0.1927346 1.4107784e-38
-0.15988845 -0.25383687 0.19281316 1.3646804e-38
-0.15010285 -0.25470507 0.19336593 1.3277657e-38
-0.13990492 -0.25373134 0.19323468 1.3000342e-38
-0.13179457 -0.25134137 0.19198006 1.2999619e-38
-0.15888526 -0.25443202 0.18568361 1.3830835e-38
-0.14965218 -0.25527808 0.18497109 1.3277657e-38
-0.14269115 -0.25482255 0.1855132 1.3276929e-38
-0.19055273 -0.21687186 0.22432905 1.5950945e-38
-0.18490016 -0.2176297 0.22308931 1.1252589e-38
-0.11016206 -0.2174359 0.22351104 1.5668921e-38
-0.18861115 -0.21929827 0.22202712 1.5674367e-38
-0.18490505 -0.219006 0.22108603 1.1159672e-38
-0.11640304 -0.22594717 0.22347254 1.6504503e-38
-0.11339828 -0.22595322 0.22346938 1.4658399e-38
-0.11523254 -0.23479712 0.21059281 1.3459489e-38
-0.1134829 -0.23209262 0.21276671 1.3919025e-38
-0.11689814 -0.23723003 0.20410502 1.3090712e-38
-0.11410218 -0.23287645 0.20279443 1.364316e-38
-0.17993805 -0.24468374 0.19431508 1.493682e-38
-0.12556598 -0.24501991 0.19392735 1.2907412e-38
-0.11950565 -0.2418415 0.19683123 1.2906678e-38
-0.11426376 -0.23938775 0.19790804 1.3366564e-38
-0.17859149 -0.2446292 0.18692064 1.4845341e-38
-0.17225686 -0.24857205 0.18690366 1.438473e-38
-0.12723863 -0.24737453 0.18818283 1.2907053e-38
-0.12148799 -0.24301046 0.18802971 1.2814846e-38
-0.17680717 -0.24739432 0.17907304 1.5028654e-38
-0.16959307 -0.25023296 0.17858988 1.4291812e-38
-0.16015702 -0.25339842 0.17925054 1.3738999e-38
-0.15029779 -0.25492609 0.17920029 1.3369853e-38
-0.13907668 -0.25277951 0.17949349 1.318473e-38
-0.13170597 -0.25085104 0.18039167 1.2999615e-38
-0.16607951 -0.25188488 0.17208552 1.4199612e-38
-0.15967548 -0.25316614 0.17149407 1.3830834e-38
-0.15062135 -0.25390992 0.1707859 1.3461687e-38
-0.14225438 -0.2523514 0.17123419 1.3184736e-38
-0.1150053 -0.20395702 0.22546178 1.7706969e-38
-0.11377102 -0.20395949 0.22546047 1.6777079e-38
-0.18816455 -0.20951295 0.22211754 1.4938614e-38
-0.11566411 -0.20792997 0.22022104 1.6140038e-38
-0.11307593 -0.20911059 0.22180754 1.6412281e-38
-0.185828 -0.2107884 0.21715176 1.1252951e-38
-0.11274046 -0.2160688 0.22108126 1.5950573e-38
-0.1124747 -0.2303558 0.20061696 1.4195246e-38
-0.18228874 -0.2423287 0.18361074 1.5212677e-38
-0.12032619 -0.24012518 0.17995822 1.2814123e-38
-0.17961037 -0.24344277 0.17281079 1.5029014e-38
-0.1735002 -0.24820524 0.17360151 1.4660237e-38
-0.12768756 -0.24500874 0.17274773 1.2814855e-38
-0.12272479 -0.24235213 0.17375422 1.2722292e-38
-0.17847161 -0.24628597 0.16467148 1.4936816e-38
-0.1702925 -0.24962014 0.16536689 1.4291452e-38
-0.16086769 -0.25286618 0.16566336 1.3830477e-38
-0.1486204 -0.25359207 0.16572046 1.336949e-38
-0.13913649 -0.25243172 0.16681564 1.3184369e-38
-0.13086349 -0.24819314 0.1655947 1.2815219e-38
-0.16809139 -0.25100207 0.15879756 1.4198898e-38
-0.15931314 -0.25315371 0.15705991 1.3646443e-38
-0.15027931 -0.25398511 0.15756142 1.3277295e-38
-0.14129186 -0.25252801 0.1581189 1.3092177e-38
-0.13368079 -0.24934924 0.15935445 1.2907419e-38
-0.15344918 -0.25490087 0.15123665 1.346133e-38
-0.18594043 -0.19940639 0.22371164 1.5862741e-38
-0.1818651 -0.19609642 0.22417307 1.4386889e-38
-0.12045079 -0.19658279 0.22313678 1.5957111e-38
-0.18632607 -0.20313895 0.22082883 1.3647883e-38
-0.18269502 -0.20081961 0.21771669 1.1896524e-38
-0.11936264 -0.20229119 0.21855026 1.429723e-38
-0.18621442 -0.20675775 0.20727098 1.1252228e-38
-0.18341416 -0.20542845 0.20878518 1.1344421e-38
-0.11886336 -0.20852202 0.21527779 1.2913215e-38
-0.18698336 -0.20797741 0.20299262 1.1250428e-38
-0.18442321 -0.2082082 0.20325011 1.1343342e-38
-0.11598726 -0.23537907 0.17619032 1.2905585e-38
-0.11400556 -0.23517278 0.17649442 1.2812666e-38
-0.18617624 -0.23971909 0.16620994 1.5671487e-38
-0.18329331 -0.24046403 0.16719139 1.5304514e-38
-0.11801941 -0.23747635 0.16871881 1.2629362e-38
-0.11341288 -0.23571756 0.16899157 1.2442806e-38
-0.17970863 -0.24473679 0.16192055 1.502865e-38
-0.17471561 -0.24731958 0.15870023 1.4660226e-38
-0.12616676 -0.24518073 0.16122478 1.2630101e-38
-0.12143354 -0.24082464 0.1608479 1.2537178e-38
-0.17711566 -0.24582547 0.15155882 1.4752069e-38
-0.17063256 -0.24919087 0.15233004 1.4199255e-38
-0.16334847 -0.25176615 0.15136617 1.3738638e-38
-0.1462594 -0.25298536 0.15050638 1.3184732e-38
-0.13864499 -0.25092202 0.15194714 1.2815946e-38
-0.13049178 -0.24718603 0.15241098 1.2538271e-38
-0.12393507 -0.24362147 0.15475941 1.235351e-38
-0.16849914 -0.24990681 0.14373863 1.4014505e-38
-0.15983611 -0.25270018 0.14371431 1.3554602e-38
-0.14977328 -0.25337052 0.14397877 1.3092899e-38
-0.13983467 -0.25215787 0.14412475 1.2631191e-38
-0.13294491 -0.24953955 0.14290613 1.1893612e-38
-0.15966108 -0.2529836 0.13667679 1.2262414e-38
-0.15066707 -0.25414902 0.13707298 1.1798535e-38
-0.14370215 -0.25250188 0.13708675 1.1249338e-38
-0.16895512 -0.18232909 0.22364148 1.5493613e-38
-0.1591627 -0.18158945 0.22379428 1.3282718e-38
-0.14923103 -0.18062347 0.2238653 1.4297601e-38
-0.1407921 -0.18197927 0.22414416 1.5035177e-38
-0.13225745 -0.18612844 0.22606778 1.6418088e-38
-0.17696163 -0.1902765 0.22235665 1.3650047e-38
-0.16992337 -0.18603259 0.21968958 1.272774e-38
-0.16087538 -0.18287784 0.22006881 1.2451879e-38
-0.14878288 -0.18243447 0.22034723 1.2820309e-38
-0.13942093 -0.18517047 0.2191166 1.3190536e-38
-0.12978217 -0.18951002 0.22143936 1.4573103e-38
-0.12435765 -0.19145194 0.22220227 1.5864192e-38
-0.17784204 -0.19411871 0.21229178 1.1713213e-38
-0.17166126 -0.18989572 0.21259648 1.1898331e-38
-0.1368949 -0.18811911 0.21209466 1.2636989e-38
-0.1293534 -0.19276363 0.21241224 1.3005412e-38
-0.12399042 -0.19599885 0.21407086 1.3558228e-38
-0.18063331 -0.19816485 0.20466954 1.1436259e-38
-0.12653734 -0.19482282 0.20451975 1.2636981e-38
-0.1232565 -0.19766277 0.20429176 1.2729178e-38
-0.18660164 -0.20635137 0.1988849 1.1342263e-38
-0.12079511 -0.20129442 0.19224072 1.4852196e-38
-0.12398978 -0.20381346 0.18856806 1.5311721e-38
-0.11783893 -0.23504877 0.15331727 1.2259496e-38
-0.18100803 -0.24197698 0.14491981 1.5027931e-38
-0.12689823 -0.24317932 0.14509559 1.2169836e-38
-0.12039842 -0.23883826 0.14621252 1.161449e-38
-0.17897487 -0.2430445 0.13795394 1.4382199e-38
-0.17189333 -0.24732161 0.13727492 1.3922661e-38
-0.13667843 -0.25040865 0.13661486 1.0598209e-38
-0.12879072 -0.2452395 0.13837397 1.0970204e-38
-0.12314872 -0.24061811 0.13994193 1.0970547e-38
-0.15364864 -0.17905414 0.22278592 1.4389432e-38
-0.15968521 -0.18360025 0.21487856 1.2267482e-38
-0.15080731 -0.18305743 0.2156018 1.2360042e-38
-0.14351255 -0.1848675 0.21346003 1.2360763e-38
-0.17506641 -0.19075412 0.2057156 1.180541e-38
-0.16837236 -0.18764848 0.20649594 1.2082723e-38
-0.15981346 -0.18487284 0.20703673 1.2175283e-38
-0.14981875 -0.18381801 0.20639807 1.2083811e-38
-0.14051339 -0.18646148 0.2067306 1.2268204e-38
-0.13338988 -0.18962643 0.20592105 1.2544787e-38
-0.17731762 -0.19294173 0.19899523 1.1528819e-38
-0.17083828 -0.18850437 0.1980682 1.1897967e-38
-0.16340886 -0.18509617 0.19896221 1.2083083e-38
-0.13881719 -0.1869621 0.19832301 1.2083093e-38
-0.13039924 -0.1915274 0.19854456 1.2360394e-38
-0.12370881 -0.19524762 0.19691616 1.2636974e-38
-0.18557134 -0.19713816 0.18669051 1.1343702e-38
-0.18066408 -0.19525018 0.18979692 1.1528096e-38
-0.17335984 -0.19014573 0.19129908 1.1805051e-38
-0.12735516 -0.19259623 0.19061416 1.2636618e-38
-0.12240317 -0.19752604 0.19154191 1.3281987e-38
-0.18539187 -0.19921291 0.18337637 1.0883802e-38
-0.18256679 -0.19777814 0.18168068 1.1159312e-38
-0.12308618 -0.23798391 0.13277656 1.0136126e-38
-0.15777238 -0.18315601 0.1991477 1.2174569e-38
-0.15038905 -0.18302417 0.19935346 1.2083091e-38
-0.14417242 -0.18318334 0.19913334 1.2083456e-38
-0.16767806 -0.1855332 0.19145024 1.1990524e-38
-0.15939331 -0.18310866 0.19210923 1.208273e-38
-0.14977783 -0.18311861 0.19247401 1.2083446e-38
-0.14114964 -0.18438208 0.19153428 1.1991973e-38
-0.13400099 -0.18697086 0.19010735 1.2177083e-38
-0.17662589 -0.19019261 0.18321878 1.1712847e-38
-0.17014845 -0.18670642 0.18398124 1.1805771e-38
-0.16148946 -0.18346632 0.18466491 1.1990891e-38
-0.1487873 -0.18263224 0.18462145 1.1991614e-38
-0.13904378 -0.1847446 0.18365383 1.208417e-38
-0.13123782 -0.18953115 0.18417805 1.2452591e-38
-0.17902976 -0.19265273 0.17499167 1.1250779e-38
-0.17333734 -0.18730944 0.17717898 1.1251507e-38
-0.13593459 -0.18738464 0.17713946 1.2176364e-38
-0.12945609 -0.19004056 0.17602289 1.2728818e-38
-0.1815816 -0.19580814 0.16832507 1.2817374e-38
-0.16700566 -0.1851725 0.17814267 1.1621024e-38
-0.15936857 -0.18284118 0.17908061 1.180578e-38
-0.15024753 -0.18298224 0.1794486 1.1990894e-38
-0.14145736 -0.18492225 0.17842764 1.1991975e-38
-0.17623723 -0.19057181 0.1704064 1.1067469e-38
-0.16987206 -0.18689492 0.17120957 1.1344065e-38
-0.16008219 -0.18376246 0.17086518 1.1529189e-38
-0.1497566 -0.18358177 0.1706121 1.18987e-38
-0.13984838 -0.18614215 0.17018908 1.1991256e-38
-0.13184878 -0.18912148 0.17062175 1.2636265e-38
-0.17771077 -0.19275153 0.16365695 1.2356763e-38
-0.17308253 -0.18877035 0.16248304 1.1343704e-38
-0.13863492 -0.18696949 0.16390502 1.1898341e-38
-0.13262646 -0.18822858 0.16289294 1.4020632e-38
-0.17638244 -0.19130814 0.15545893 1.577088e-38
-0.17398825 -0.19101179 0.15589476 1.2726277e-38
-0.15891302 -0.18273458 0.16443932 1.1621736e-38
-0.15158038 -0.18293801 0.16415673 1.1898337e-38
-0.16859297 -0.1859045 0.15763712 1.1344063e-38
-0.16002584 -0.18335262 0.15671551 1.1437346e-38
-0.1498324 -0.18329993 0.15676504 1.1713944e-38
-0.14019491 -0.18605283 0.15776742 1.2543708e-38
-0.13359651 -0.1875042 0.15754384 1.5406781e-38
-0.17015308 -0.18717489 0.14902377 1.4017731e-38
-0.16122702 -0.18476912 0.14862078 1.1897237e-38
-0.14951921 -0.18521008 0.14790267 1.3649322e-38
-0.143076 -0.18558705 0.15042722 1.540176e-38
-0.15795839 -0.18354666 0.14355397 1.4295045e-38
-0.15357333 -0.18447697 0.14381135 1.4940061e-38
