# .PCD v0.7 - Point Cloud Data file format
VERSION 0.7
FIELDS x y z rgb
SIZE 4 4 4 4
TYPE F F F F
COUNT 1 1 1 1
WIDTH 216
HEIGHT 1
VIEWPOINT 0 0 0 1 0 0 0
POINTS 216
DATA ascii
-0.046382874 -0.23692036 0.10192215 1.9357503e-38
-0.040795624 -0.23755991 0.10164589 1.9266332e-38
-0.029836616 -0.23952973 0.10249424 1.9540028e-38
-0.021168003 -0.23968327 0.1027171 1.926272e-38
-0.010908185 -0.24126261 0.10250145 1.8986142e-38
-0.0010390598 -0.24236405 0.10352248 1.9081219e-38
0.0083914753 -0.24312657 0.10338771 1.8710291e-38
0.013884237 -0.24576515 0.10300291 1.7790141e-38
-0.046579227 -0.23976785 0.10084242 1.9357489e-38
-0.040885508 -0.24178869 0.099264741 1.8436246e-38
-0.031935789 -0.24394596 0.098311722 1.8068553e-38
-0.02139649 -0.24506199 0.097875953 1.7055124e-38
-0.012219386 -0.24676424 0.097397268 1.5949868e-38
-0.0022668149 -0.2486257 0.097180367 1.5674005e-38
0.0077795554 -0.24920452 0.095925391 1.5396342e-38
0.013358986 -0.25103354 0.10147893 1.5120113e-38
-0.036075518 -0.22468835 0.10295612 2.018503e-38
-0.028470142 -0.22514224 0.10444301 1.9630083e-38
-0.01902681 -0.22602957 0.10387439 1.898508e-38
-0.0090465751 -0.22706479 0.10293263 2.0091777e-38
0.00093651749 -0.22813731 0.10338688 2.0093938e-38
0.0083126221 -0.23067784 0.10301316 1.9907765e-38
-0.046179205 -0.23041439 0.10265893 1.9357133e-38
-0.04030294 -0.23086143 0.10172296 1.9817701e-38
-0.030800579 -0.23279899 0.10315174 2.0553463e-38
-0.0206389 -0.23361814 0.10420424 1.9906653e-38
-0.010449147 -0.23462433 0.10347766 1.9907377e-38
-0.0013081599 -0.23565394 0.10437655 2.0278675e-38
0.0090347808 -0.23671651 0.10464042 1.9999595e-38
-0.046757683 -0.2377212 0.08940053 1.9817737e-38
-0.042598322 -0.24209344 0.093089044 1.7698344e-38
-0.029412629 -0.24499667 0.093149364 1.7701229e-38
-0.02451721 -0.24555707 0.09290731 1.7610109e-38
0.0069533568 -0.24915951 0.091351271 1.5303796e-38
-0.047334768 -0.23992717 0.085573435 1.9818815e-38
-0.041894503 -0.24322766 0.085810602 1.7330283e-38
-0.032621451 -0.24606138 0.08640486 1.6133912e-38
-0.022667034 -0.24732107 0.086094022 1.7149131e-38
-0.012527926 -0.24840713 0.08546418 1.5673291e-38
-0.0024003889 -0.2501145 0.085603058 1.5673651e-38
0.0074523222 -0.25036877 0.0839293 1.5580734e-38
0.013554106 -0.25303453 0.085000336 1.5765123e-38
-0.030905684 -0.24723101 0.07903403 1.4752067e-38
-0.022069355 -0.2482425 0.078597128 1.7148411e-38
-0.01393993 -0.24917305 0.078195155 1.5397065e-38
-0.0034541581 -0.25037336 0.077676713 1.5581101e-38
0.010367418 -0.25244856 0.0764727 1.6135739e-38
0.012488136 -0.25269133 0.076367795 1.5856288e-38
-0.034373656 -0.21110857 0.10237187 1.851905e-38
-0.027021663 -0.21302491 0.1045621 1.8801772e-38
-0.018077096 -0.21427327 0.10478085 1.9079452e-38
-0.0081446413 -0.21539015 0.10455602 2.0646764e-38
0.0022804905 -0.21561766 0.10468787 1.9357474e-38
0.010149987 -0.21531743 0.10355699 2.0463096e-38
-0.044427067 -0.21633291 0.10001963 1.9172015e-38
-0.038174011 -0.21752322 0.10134488 1.9537867e-38
-0.028968448 -0.21830684 0.10454851 1.8708858e-38
-0.018311987 -0.22000051 0.10470533 1.8986173e-38
-0.008617932 -0.22126436 0.10416543 2.0369092e-38
0.0014039371 -0.22208649 0.10435981 1.9633335e-38
0.0098916609 -0.22358221 0.10163492 2.0276905e-38
-0.049017936 -0.2388646 0.083662927 1.9634443e-38
-0.043770939 -0.24327868 0.07937634 1.6779975e-38
0.0056191441 -0.24907362 0.076785147 1.539455e-38
-0.042735793 -0.24376857 0.072317898 1.6039181e-38
-0.033573985 -0.24638069 0.072460353 1.6962945e-38
-0.023710439 -0.24771851 0.07171762 1.7056575e-38
-0.013478642 -0.24817532 0.07108134 1.5581092e-38
-0.0035559442 -0.2495445 0.071002424 1.5580734e-38
0.0059850086 -0.25031608 0.07013458 1.5858051e-38
0.011830879 -0.25138026 0.067512333 1.429221e-38
-0.032997072 -0.24652404 0.065069795 1.7332801e-38
-0.021304367 -0.24791008 0.064441383 1.6779626e-38
-0.013828652 -0.24868262 0.064159751 1.6224658e-38
-0.0042959284 -0.24952394 0.063952148 1.5766563e-38
0.0057330821 -0.25067198 0.063456297 1.5582191e-38
-0.032497659 -0.19710606 0.102732 1.7508859e-38
-0.025342023 -0.19752437 0.10324943 1.8524109e-38
-0.015955875 -0.19861728 0.10424006 1.9633331e-38
-0.0058297534 -0.19947392 0.10545951 2.0279408e-38
0.0045911577 -0.20096898 0.10559964 1.9080879e-38
0.010374827 -0.20424163 0.10437524 2.0557074e-38
-0.043322466 -0.20234978 0.10118639 1.8987629e-38
-0.037077717 -0.20389736 0.10178512 1.8614838e-38
-0.027216455 -0.20463622 0.10323161 1.8524468e-38
-0.016602682 -0.20635921 0.1040284 1.9724817e-38
-0.0067162756 -0.20772594 0.10399967 2.0925146e-38
0.0021224637 -0.20839906 0.10430431 1.9173081e-38
0.0098894592 -0.20981026 0.10362893 2.0371978e-38
-0.04419212 -0.20934963 0.099159598 1.9080545e-38
-0.041425288 -0.21067852 0.099409819 1.9079056e-38
0.012307553 -0.24842066 0.061935186 1.3097274e-38
-0.042555571 -0.24427837 0.059020102 1.6315772e-38
-0.034063488 -0.24664807 0.058055162 1.5119038e-38
-0.024090929 -0.24686182 0.056575239 1.4842082e-38
-0.013669999 -0.2484538 0.056440115 1.401232e-38
-0.0037024077 -0.25018239 0.056764364 1.3274404e-38
0.0060654823 -0.24979854 0.055309713 1.3274411e-38
0.012005178 -0.25020969 0.056529522 1.2538677e-38
-0.040766895 -0.18248904 0.10447216 1.8619539e-38
-0.034127608 -0.18207872 0.10305011 1.778544e-38
-0.024498036 -0.18312579 0.1027779 1.7971287e-38
-0.013585979 -0.18442822 0.10407501 1.9172346e-38
-0.0039103534 -0.18463022 0.10442805 1.8895759e-38
0.0042211246 -0.18625069 0.10533148 1.7882686e-38
-0.041945025 -0.18806243 0.10062027 1.8711747e-38
-0.035453759 -0.18948495 0.10232788 1.8152778e-38
-0.025648201 -0.19014412 0.10324723 1.815532e-38
-0.015836483 -0.19202024 0.10479218 1.9080154e-38
-0.0058491733 -0.19153881 0.10483599 1.9540408e-38
0.0030201543 -0.19328749 0.10493362 1.8435864e-38
-0.04153762 -0.1956417 0.10072029 1.8710653e-38
-0.040082201 -0.19580829 0.10064828 1.8706662e-38
0.0060884077 -0.16615838 0.10977614 1.7327346e-38
-0.030842045 -0.16756654 0.10346657 1.7787595e-38
-0.021701345 -0.1691103 0.10421002 1.7973445e-38
-0.012832439 -0.16960204 0.10357428 1.8802833e-38
-0.0021549743 -0.17093229 0.10445786 1.8433329e-38
0.0047357585 -0.17063171 0.10559797 1.7512454e-38
-0.039897673 -0.17324126 0.10137707 1.8432976e-38
-0.033443525 -0.17339605 0.10174769 1.7970902e-38
-0.023652485 -0.17627263 0.10332614 1.8064556e-38
-0.014137702 -0.17673767 0.10381556 1.8894674e-38
-0.0038324725 -0.17781407 0.10492903 1.871064e-38
0.0037894752 -0.17837346 0.1054489 1.7881963e-38
-0.028142141 -0.15489721 0.10393351 1.7507058e-38
-0.020934453 -0.15545934 0.10385495 1.7973072e-38
-0.011047749 -0.1562711 0.10397679 1.8341128e-38
-0.00064219721 -0.15743446 0.10495216 1.7603924e-38
0.0044186767 -0.15894562 0.10635287 1.7512094e-38
-0.039992929 -0.15890479 0.10039634 1.8431919e-38
-0.031887837 -0.16044635 0.10273772 1.7691441e-38
-0.02241662 -0.16088706 0.10263646 1.7881598e-38
-0.01183833 -0.16199899 0.10269481 1.8525167e-38
-0.0026822258 -0.16423219 0.10420269 1.7603927e-38
0.0035201665 -0.16480488 0.10592556 1.7145111e-38
-0.039903291 -0.16524202 0.10017747 1.8339002e-38
-0.036379009 -0.16649383 0.10129136 1.8246061e-38
-0.026189664 -0.14124346 0.10393059 1.6863129e-38
-0.020080769 -0.1419428 0.10362858 1.7510655e-38
-0.0093902294 -0.14316654 0.1031 1.7695038e-38
0.00081381388 -0.14430469 0.10529655 1.7236211e-38
-0.038389601 -0.14734393 0.10098511 1.8247868e-38
-0.030330969 -0.14723563 0.1028493 1.7784347e-38
-0.020616664 -0.14901024 0.10420591 1.7695048e-38
-0.010768382 -0.15012002 0.10439515 1.8156738e-38
-0.00087554939 -0.15026379 0.10495001 1.7236582e-38
-0.040178917 -0.15352857 0.10160655 1.8524841e-38
-0.03448835 -0.15372801 0.10180253 1.8336777e-38
-0.024052201 -0.12560856 0.10457689 1.6956037e-38
-0.017860169 -0.12631732 0.1042707 1.732482e-38
-0.0069797728 -0.12729287 0.10401779 1.8063459e-38
5.7054684e-05 -0.12859434 0.1046024 1.7697175e-38
-0.036382519 -0.13209122 0.10112727 1.824894e-38
-0.028455591 -0.13253725 0.10280931 1.7601753e-38
-0.018758124 -0.13392222 0.10364801 1.7509931e-38
-0.0088678803 -0.13567835 0.10362244 1.7972337e-38
9.781681e-05 -0.13620144 0.10450763 1.7420603e-38
-0.037967861 -0.13967872 0.10021138 1.8249309e-38
-0.034225896 -0.14041203 0.10132217 1.8432218e-38
-0.014654586 -0.11246961 0.10456222 1.7140781e-38
-0.0094315428 -0.11306745 0.10430402 1.7695028e-38
-0.035361454 -0.11803615 0.10219687 1.8246414e-38
-0.02704809 -0.11928236 0.10365885 1.7231902e-38
-0.016926406 -0.11839849 0.10338098 1.7324455e-38
-0.0074735936 -0.11945653 0.10352141 1.7971965e-38
6.0429797e-05 -0.12194705 0.1036948 1.8250706e-38
-0.036185533 -0.12454677 0.1013366 1.8246415e-38
-0.03164231 -0.12465125 0.10213351 1.7970523e-38
-0.019817738 -0.097505808 0.10543472 1.7143645e-38
-0.016646115 -0.09786886 0.1052779 1.7325157e-38
-0.0031666886 -0.099411845 0.10461146 1.8799921e-38
0.00079785846 -0.099865675 0.10441542 1.8708806e-38
-0.035630308 -0.10202736 0.10207826 1.797128e-38
-0.025487723 -0.10321712 0.10336685 1.7139342e-38
-0.015661674 -0.10515618 0.10436702 1.7232972e-38
-0.0052198153 -0.10599619 0.10325289 1.8525499e-38
0.0016092006 -0.10750312 0.10277843 1.8803152e-38
-0.035839625 -0.10984862 0.10028327 1.8247866e-38
-0.027039519 -0.11048776 0.10213029 1.7601037e-38
-0.02068113 -0.11132789 0.10242534 1.7048959e-38
-0.0018328074 -0.11348546 0.10149342 1.5854725e-38
0.000472432 -0.11220449 0.10009843 1.8530157e-38
-0.032159604 -0.092470646 0.10295367 1.8061291e-38
-0.024487952 -0.09150511 0.10300791 1.723477e-38
-0.013810357 -0.09247756 0.10301936 1.7234049e-38
-0.0045496989 -0.09364593 0.10313916 1.8522615e-38
0.0019738507 -0.094347358 0.10256088 1.8890668e-38
-0.03220246 -0.096742094 0.10244405 1.7874016e-38
-0.040794328 -0.10330349 0.093444884 1.8802525e-38
-0.010575579 -0.071908772 0.10662502 1.8614462e-38
-0.00087527372 -0.072382271 0.10565305 1.8798859e-38
0.007233372 -0.073310494 0.10525215 1.8615905e-38
-0.031946264 -0.076197326 0.10377252 1.7784355e-38
-0.021736385 -0.077956319 0.10312992 1.7232963e-38
-0.011734175 -0.077554047 0.10369843 1.7416624e-38
-0.0022562016 -0.078421175 0.1033026 1.8615531e-38
0.0070415493 -0.079172552 0.10231304 1.8340385e-38
0.014451677 -0.080129266 0.099537551 1.7973039e-38
-0.033798359 -0.082733154 0.10125196 1.8525879e-38
-0.023770718 -0.08400929 0.10241687 1.6958548e-38
-0.01331334 -0.085281253 0.10195935 1.7236214e-38
-0.0029440392 -0.086008549 0.10117573 1.8706288e-38
0.0061439257 -0.086744785 0.10059738 1.7324801e-38
-0.028640429 -0.066550255 0.10497445 1.6670155e-38
-0.021315554 -0.067388713 0.10461229 1.8245343e-38
-0.01555728 -0.06910938 0.10514814 1.8522635e-38
-0.0012875777 -0.070459366 0.10474193 1.8614838e-38
0.0087526087 -0.070920348 0.1049723 1.8432618e-38
0.018671276 -0.070867121 0.10282493 1.8710623e-38
-0.028948477 -0.068612337 0.10305214 1.7505599e-38
-0.0217574 -0.070228338 0.10313529 1.8151669e-38
-0.015836386 -0.070777893 0.10336614 1.8520441e-38
0.011704193 -0.074497342 0.1014058 1.8896448e-38
0.018024197 -0.074247658 0.099815428 1.8987551e-38
0.024819741 -0.071461141 0.09826839 1.8707367e-38
