# .PCD v0.7 - Point Cloud Data file format
VERSION 0.7
FIELDS x y z rgb
SIZE 4 4 4 4
TYPE F F F F
COUNT 1 1 1 1
WIDTH 208
HEIGHT 1
VIEWPOINT 0 0 0 1 0 0 0
POINTS 208
DATA ascii
-0.15100579 -0.050061345 0.21805784 1.6044591e-38
-0.15546316 -0.051732838 0.21561652 1.35575e-38
-0.1507341 -0.051899791 0.21538222 1.3188354e-38
-0.14285976 -0.054278791 0.21193421 1.0594251e-38
-0.12189974 -0.036422074 0.22030544 1.4665997e-38
-0.17801346 -0.040786207 0.21396619 1.4572009e-38
-0.17310709 -0.042442381 0.21321273 1.4388345e-38
-0.14533935 -0.047750354 0.21613398 1.5583972e-38
-0.13870317 -0.0488199 0.21723902 1.4479072e-38
-0.1293608 -0.042498648 0.21529025 1.2080916e-38
-0.1211291 -0.038655043 0.21793959 1.447689e-38
-0.11425482 -0.043868899 0.21477813 1.1708503e-38
-0.17704454 -0.044542134 0.20891261 1.3187271e-38
-0.16954672 -0.049007952 0.2100805 1.3187637e-38
-0.15965316 -0.052115619 0.2108959 1.3187632e-38
-0.14916271 -0.05246532 0.21065527 1.3095789e-38
-0.13935183 -0.051145077 0.21200287 9.1288527e-39
-0.13109557 -0.046676815 0.2100172 1.0511049e-38
-0.16859779 -0.050013363 0.2023114 1.3187278e-38
-0.1586864 -0.052184999 0.20027268 1.3186914e-38
-0.14973061 -0.052543938 0.199889 1.309471e-38
-0.14121184 -0.051479459 0.20017338 8.4834707e-39
-0.15577736 -0.054224968 0.19432849 1.3279105e-38
-0.14946657 -0.054578006 0.19382632 1.3003234e-38
-0.14257503 -0.054616213 0.19378364 8.0196269e-39
-0.18697546 -0.028689146 0.2162081 1.5860206e-38
-0.18805298 -0.03263706 0.2117669 1.4752067e-38
-0.18285573 -0.037181973 0.21319884 1.4294339e-38
-0.12744775 -0.03829819 0.21314913 1.2908862e-38
-0.11897181 -0.036401689 0.21401244 1.0970934e-38
-0.11449824 -0.038712859 0.21345276 1.189289e-38
-0.18675321 -0.039699912 0.20528793 1.4290723e-38
-0.18121141 -0.042562246 0.20537013 1.3555689e-38
-0.12752557 -0.043296576 0.20423335 1.1248256e-38
-0.11979141 -0.039407253 0.20578015 1.0602154e-38
-0.17770663 -0.044564605 0.19552612 1.3371299e-38
-0.17027494 -0.04820472 0.1952939 1.3279109e-38
-0.16266236 -0.05066967 0.19478118 1.3279108e-38
-0.13687858 -0.049609303 0.19660819 8.7571723e-39
-0.13068381 -0.046556175 0.19670767 9.4943842e-39
-0.17620021 -0.046779275 0.18923414 1.3555329e-38
-0.1688318 -0.049055934 0.18747187 1.3279467e-38
-0.15967506 -0.051447093 0.18662578 1.3370942e-38
-0.14968942 -0.052921772 0.18652356 1.30947e-38
-0.13925374 -0.050176144 0.18641895 9.4022012e-39
-0.13264987 -0.048591197 0.18844426 1.2541497e-38
-0.15899549 -0.05298233 0.18023741 1.3463135e-38
-0.15095481 -0.053164542 0.18046868 1.3370576e-38
-0.19187979 -0.02682066 0.21472448 1.5301626e-38
-0.1175561 -0.025653124 0.21514994 1.4199954e-38
-0.19477996 -0.029320598 0.20401615 1.5392713e-38
-0.19297832 -0.029449701 0.20854092 1.5208692e-38
-0.18810859 -0.037613988 0.1990208 1.4566584e-38
-0.11860101 -0.035275936 0.19677401 1.1155681e-38
-0.1137284 -0.03314805 0.19506419 1.346126e-38
-0.18777402 -0.039503396 0.19193631 1.4566221e-38
-0.18270648 -0.041198254 0.19109672 1.373936e-38
-0.12613788 -0.039077878 0.18861729 1.0699745e-38
-0.12100844 -0.035761833 0.19124621 1.2170192e-38
-0.11306049 -0.033353984 0.19123381 1.3920436e-38
-0.18695235 -0.038216531 0.1840179 1.4290716e-38
-0.17893402 -0.044010997 0.18250912 1.3647522e-38
-0.17097817 -0.048649967 0.18228239 1.3279825e-38
-0.13878021 -0.049793124 0.18138492 9.7778053e-39
-0.12957419 -0.043725252 0.18224132 1.2447856e-38
-0.12308128 -0.038127065 0.18426746 1.2633318e-38
-0.17630234 -0.045665801 0.17451912 1.3647166e-38
-0.16946678 -0.049296081 0.17434508 1.355497e-38
-0.15986851 -0.052642107 0.17415404 1.3463135e-38
-0.14936173 -0.052013993 0.17396945 1.3370202e-38
-0.13978021 -0.049683392 0.17401415 8.8519057e-39
-0.13208143 -0.04667902 0.17504036 1.1617759e-38
-0.16826779 -0.049656153 0.16740149 1.3555686e-38
-0.15819663 -0.051965594 0.16617793 1.3463129e-38
-0.14972036 -0.05215627 0.16541612 1.3093254e-38
-0.14125171 -0.0505898 0.16679925 6.0856809e-39
-0.19290875 -0.0050567985 0.21284753 1.6228977e-38
-0.11723384 -0.007229805 0.21571261 1.6048554e-38
-0.11404462 -0.0085564256 0.21673101 1.6315751e-38
-0.19257534 -0.0082324147 0.20955038 1.558468e-38
-0.11720481 -0.0099557638 0.21292216 1.559118e-38
-0.11810483 -0.033251166 0.1849333 1.1892876e-38
-0.11325687 -0.0329144 0.18480939 1.3552028e-38
-0.18861404 -0.037647367 0.17834473 1.4658053e-38
-0.18249168 -0.040389836 0.17556483 1.392267e-38
-0.12629238 -0.038531601 0.17731482 1.2816644e-38
-0.11989915 -0.034800708 0.17663932 1.0969849e-38
-0.1135253 -0.034129977 0.17915416 1.2722634e-38
-0.18746805 -0.038882971 0.16986966 1.4565864e-38
-0.18087168 -0.042265713 0.16785443 1.3923028e-38
-0.17337954 -0.046987414 0.1677444 1.3738993e-38
-0.12830137 -0.04291898 0.16833889 1.2263115e-38
-0.12281141 -0.037532687 0.16806167 1.1708842e-38
-0.17758593 -0.044514298 0.15971774 1.392303e-38
-0.16952062 -0.048243523 0.16085351 1.3647163e-38
-0.16007993 -0.05073303 0.15996242 1.3554609e-38
-0.14912677 -0.051699162 0.15906137 1.2815942e-38
-0.13921401 -0.049398899 0.16089225 4.885323e-39
-0.13146193 -0.044837952 0.1594395 1.0788703e-38
-0.16854647 -0.04923743 0.15179503 1.3830475e-38
-0.16016647 -0.051342726 0.15130097 1.373864e-38
-0.14968278 -0.052413106 0.15144318 1.2998906e-38
-0.13993123 -0.050636947 0.15267569 7.2834856e-39
-0.13308255 -0.047700524 0.15265375 1.0511752e-38
-0.15951777 -0.051961422 0.14463603 1.3739e-38
-0.15033121 -0.052004457 0.14459062 1.2445024e-38
-0.18825993 0.0055219531 0.21765882 1.5950951e-38
-0.18308797 0.0094001889 0.21624944 1.4663823e-38
-0.12657966 0.0096059442 0.21665454 1.5957453e-38
-0.12353356 0.0064291358 0.21674544 1.6508836e-38
-0.18828309 -3.015995e-05 0.21300858 1.3372015e-38
-0.18361345 0.0056139827 0.21191454 1.208236e-38
-0.12579808 0.0073689818 0.21339989 1.4482714e-38
-0.1219272 0.0024657845 0.21179849 1.4942236e-38
-0.18940496 -0.0036073923 0.20487243 1.2448247e-38
-0.11682746 -0.032229722 0.16990542 1.1429377e-38
-0.18895167 -0.035686314 0.16253161 1.4657693e-38
-0.11989509 -0.035401106 0.16361034 9.587991e-39
-0.18750411 -0.036238968 0.15308911 1.4474026e-38
-0.18143174 -0.041252196 0.15406144 1.4106696e-38
-0.12745222 -0.04158175 0.15374994 7.9259529e-39
-0.12154464 -0.038429022 0.15704644 8.8482707e-39
-0.18596363 -0.038111329 0.14708692 1.4382193e-38
-0.17997153 -0.042883754 0.14544952 1.4198533e-38
-0.17172143 -0.047278166 0.14545333 1.4014506e-38
-0.13786554 -0.046803415 0.14441442 1.300176e-38
-0.13013072 -0.043616116 0.14565402 1.1431909e-38
-0.17715529 -0.044980764 0.13760871 1.4106339e-38
-0.16932981 -0.04884547 0.1366812 1.3921228e-38
-0.15971255 -0.051377475 0.13806897 1.373792e-38
-0.14968795 -0.05047977 0.13689923 1.2815948e-38
-0.1397101 -0.048952758 0.13704407 9.6809335e-39
-0.13285689 -0.046622157 0.13615638 1.0600006e-38
-0.16542971 0.020946145 0.21719474 1.6322273e-38
-0.15832224 0.021760881 0.21706972 1.5772709e-38
-0.15015799 0.021759629 0.21734807 1.6509552e-38
-0.13984185 0.020358503 0.21756455 1.7612623e-38
-0.1844728 0.01266551 0.21746805 1.6319016e-38
-0.17816219 0.013682723 0.21529752 1.3927351e-38
-0.16953124 0.016920149 0.21344608 1.2822097e-38
-0.15953147 0.019737959 0.21368164 1.2821748e-38
-0.14851409 0.019430101 0.21325403 1.3374931e-38
-0.13975185 0.016130209 0.21376497 1.4205398e-38
-0.13183112 0.013205707 0.215325 1.5403929e-38
-0.18467666 0.005653739 0.20490646 1.1714289e-38
-0.17935106 0.010161221 0.20644742 1.1899049e-38
-0.17239507 0.013162792 0.20610487 1.1991247e-38
-0.13841528 0.013368368 0.20671982 1.3006494e-38
-0.13014369 0.0096221566 0.20637012 1.3651501e-38
-0.1243562 0.0035816431 0.20435804 1.3743338e-38
-0.18661585 0.0021786094 0.19768608 1.1529172e-38
-0.18188497 0.0067029595 0.19782609 1.1621736e-38
-0.12708235 0.0064757466 0.19655681 1.3189799e-38
-0.12213776 0.0040686131 0.19855016 1.4019192e-38
-0.18697202 0.0015733242 0.18993688 1.3277279e-38
-0.18398213 0.0032366514 0.18961644 1.171176e-38
-0.12485118 0.0035702586 0.19021249 1.4021713e-38
-0.12325309 0.00356704 0.19021076 1.4941139e-38
-0.11734153 -0.026906669 0.15999269 1.0878719e-38
-0.18895388 -0.034334123 0.14787018 1.4657698e-38
-0.12046205 -0.032432497 0.14841151 9.5872679e-39
-0.18697828 -0.038096726 0.14216143 1.4657335e-38
-0.12639666 -0.03881979 0.13954484 1.0695043e-38
-0.12082905 -0.03420645 0.14005983 1.1154238e-38
-0.12913184 -0.043383658 0.13444149 1.0324132e-38
-0.14572644 0.024226427 0.21670836 1.6785755e-38
-0.14412454 0.024223208 0.21670666 1.6783596e-38
-0.16497017 0.018369079 0.20814645 1.2176366e-38
-0.15900716 0.01942718 0.20845139 1.2268566e-38
-0.15100211 0.019825578 0.20883828 1.2729551e-38
-0.17540346 0.012493968 0.1995753 1.1899047e-38
-0.1682995 0.016033888 0.20101309 1.1899775e-38
-0.1596981 0.018706441 0.20061529 1.1991972e-38
-0.14958471 0.017906368 0.20058936 1.2268922e-38
-0.1408914 0.014917493 0.20104831 1.2545511e-38
-0.17777231 0.011149764 0.19295841 1.1806129e-38
-0.17157155 0.01454097 0.19373184 1.1899409e-38
-0.1455507 0.017058611 0.19391346 1.2084888e-38
-0.13792105 0.013400972 0.19373339 1.2453307e-38
-0.13162912 0.010551929 0.19270939 1.2821731e-38
-0.18615466 0.0040515661 0.18314582 1.5769051e-38
-0.18214038 0.0072692037 0.18548238 1.1989423e-38
-0.1294654 0.0088944435 0.18647468 1.3097239e-38
-0.19173422 -0.024921775 0.13272095 1.4932473e-38
-0.16001472 0.019585073 0.19403177 1.199233e-38
-0.15218933 0.019569337 0.19402349 1.2084525e-38
-0.17649451 0.01411742 0.18604237 1.2081994e-38
-0.16845012 0.017620504 0.18701553 1.1991246e-38
-0.15912223 0.018774986 0.18760383 1.2083444e-38
-0.14937419 0.0182091 0.18758184 1.2083804e-38
-0.14071609 0.016175389 0.18651438 1.2268556e-38
-0.17808309 0.012649 0.17901117 1.1897597e-38
-0.17027313 0.016516626 0.17909735 1.1899047e-38
-0.16010895 0.018911004 0.17927581 1.1991607e-38
-0.14927685 0.018123329 0.17942649 1.217564e-38
-0.13931039 0.014752746 0.1785813 1.2544422e-38
-0.13261591 0.012629449 0.18007302 1.3373454e-38
-0.17997211 0.012375593 0.17158008 1.5125852e-38
-0.17524788 0.016398072 0.17170453 1.1437345e-38
-0.16828604 0.017690182 0.17258918 1.1990164e-38
-0.15963674 0.018435359 0.17371005 1.2083086e-38
-0.1497573 0.018500566 0.17339975 1.2175284e-38
-0.1435771 0.016643643 0.17212105 1.1992692e-38
-0.17628683 0.014019668 0.16753405 1.4386881e-38
-0.16964841 0.014483035 0.16692597 1.392662e-38
-0.15926583 0.017021596 0.16665304 1.3096509e-38
-0.15024698 0.018635809 0.16636443 1.3097595e-38
-0.14164199 0.015151858 0.16898984 1.4293972e-38
